ply
format ascii 1.0
element vertex 883
property float x
property float y
property float z
property uchar red
property uchar green
property uchar blue
end_header
1.08688374615 -0.742105256205 4.90515258915 147 153 187
1.01660444889 0.893101204551 4.52484481585 51 52 72
0.00429867472408 0.497453903572 4.72134382561 39 41 62
-0.358691993929 0.899949713606 3.23735561324 121 122 150
0.0541542257532 -0.921715770307 3.87484756221 118 105 125
0.0500489619495 -0.907805810951 3.87015510519 103 88 109
2.16919923054 -1.34234092604 6.13322128126 74 70 93
2.55757535275 0.631716149793 6.22780059756 150 185 241
0.189680329693 0.922673710271 3.75059151952 105 112 141
2.14965731696 0.698690146531 6.14095727231 65 72 90
2.85378932108 -0.214739875392 6.7183730559 158 162 199
0.836540673478 -1.25468678667 4.71522039233 177 181 218
0.272189085177 -1.20450526777 4.0868329306 87 80 96
1.51857752223 0.582682505939 5.84635839968 46 66 103
2.5623085674 0.653372889829 6.2151849304 240 243 250
2.77499228421 1.12467633086 6.33986356515 106 112 134
-0.0543460433713 -0.992523792252 3.77437512586 116 127 147
1.95151359335 0.176801741643 6.2742961173 88 75 101
1.48247478446 0.949034190826 4.67975229888 84 92 129
2.51063850064 0.598923865695 6.17831048221 32 36 48
-0.211027818818 -0.844176700745 3.56712281466 106 98 111
0.763853021634 0.0430276081654 4.44808712741 77 79 92
2.51212816078 0.385626557316 6.23463842197 111 103 126
-0.133967335559 -0.919463523886 3.75287232853 84 84 82
1.27821484672 -1.26537188284 5.16857095606 174 179 217
1.13297276935 -0.442269975938 4.91237019043 146 157 189
2.27866227172 1.08057660671 5.49081638186 118 132 169
2.14571057057 -1.57224629099 6.15079048547 42 43 61
1.6879241704 -1.51770656844 5.65985515891 58 58 84
0.802482415909 0.749219963362 4.33826230149 98 106 127
-0.894636313647 0.66714192964 3.64922494581 42 41 59
0.968148345471 1.00686451537 4.45779538551 90 95 127
0.98653701213 -0.525870274463 4.77115957215 139 155 189
1.08354828207 -0.268300979417 4.83098282474 169 173 210
-1.13248583954 0.741037083546 3.45353628633 88 85 106
-0.996125167196 0.78277179323 3.51272472478 45 44 58
0.317237217206 0.927338135039 4.02368979779 96 103 132
0.459645700742 -0.986993947572 4.24010342409 123 110 127
0.981122051121 0.729900992315 4.54210932277 74 79 75
1.76831958974 -1.08361079648 5.68668016988 97 87 111
0.266250762067 0.847533126806 4.13438843726 108 125 155
1.29767837861 -0.00895118691264 5.01661034375 123 105 127
0.12784864559 0.947905072634 3.68484958205 99 106 134
1.77458122812 -0.456611245821 6.34303035978 37 36 42
0.0888394643742 -0.970900640347 3.92870574897 92 79 99
2.01507189689 0.720309163903 6.13511376764 29 22 29
0.746045639734 0.817036524851 4.26486176074 106 109 128
0.926858841572 -0.849149982608 4.75037171795 155 168 203
1.62072191135 -0.792698582991 5.89150000164 102 96 122
2.6283340935 -0.536924794628 6.48190747139 167 184 214
0.847004549985 0.67682974824 4.43788252907 120 135 138
0.0930277136467 0.937950532962 3.66195973369 105 115 142
-0.349664055676 -0.516620915037 4.63606489716 43 47 58
1.5317510347 -0.687297965081 6.020384617 60 49 63
0.784900712665 0.976267729158 4.28056252284 79 90 112
1.2249473082 0.807673670486 4.75439059595 81 86 106
1.26784353298 -0.417595547039 4.98555134884 67 66 98
0.688292488853 -0.43685762485 4.42128449033 73 61 83
2.82141400807 0.270495825014 6.58523822726 152 158 194
2.22252623905 -0.125783978267 6.22250766365 106 100 126
2.27781126212 0.864797609794 6.03175799334 54 41 51
0.911594593795 0.874189169673 4.4258376092 48 49 70
2.90839747221 1.13930658432 6.48485037187 116 124 143
-0.855959331829 0.651719037867 3.69526633988 48 47 65
-0.962554595907 0.886802621228 3.52013509734 33 35 56
0.691874226936 0.81635812667 4.21968302066 56 55 71
0.394216712592 -1.06749428468 4.24559787038 81 69 89
1.38000902989 -0.741135684272 5.21539967543 121 105 132
0.176126570573 0.851838368739 4.05247152862 95 102 131
1.4601067274 0.323395741889 5.82708360859 35 47 71
2.01287451067 0.176637809993 6.257060689 80 75 98
0.790228939837 0.12528805491 4.48014060002 119 116 137
1.96156075688 -1.40421072598 5.89448863971 150 161 191
1.48613855781 0.845299450093 5.79756913901 29 32 49
3.20195679191 -0.41768547377 7.13549810652 64 68 93
0.412097816572 0.95252174523 3.96629427551 109 118 151
1.14347648468 1.01355697263 4.63530315989 52 53 74
0.111497369747 -0.971196875334 3.93283567583 70 63 79
0.0787796188897 0.909394291866 3.65373674276 105 116 146
2.10414926842 -1.18219926602 6.0335582536 30 47 63
0.903839917314 1.0018710002 4.38818778915 94 89 119
0.14098555861 0.91902044796 3.70525433197 107 118 148
-0.209113108005 -0.29138093093 3.55702352132 127 122 145
1.7268210962 1.05902627544 4.76536601048 64 66 104
1.9654002551 -1.07800968337 5.93292817707 36 34 45
0.941987421589 0.855249915475 4.45185492427 53 56 73
-0.00076630109348 0.745099128738 4.35254582732 100 113 145
0.296168574429 0.781739780724 4.63658328799 40 39 55
0.920611010974 -0.283067451404 4.6698672239 143 149 185
2.97722256466 0.791758362613 6.66382566874 136 134 158
2.33239752698 1.07141598285 5.56391303563 86 99 131
-0.198988468127 0.758678573432 3.8637710562 84 93 124
2.53774227575 -0.653527299564 6.4008737994 33 38 57
2.03646357611 1.06805427018 5.08888147583 79 92 124
1.28347250285 0.210385035289 4.97040326722 105 92 120
1.09281984619 0.272136195437 4.75350731349 174 184 219
1.72639117716 -1.03903758471 5.70211821044 120 106 132
2.44318158162 0.49792589918 6.16037498713 69 61 76
0.393058786046 -1.02358206235 4.21461618178 99 83 109
1.13516227095 -0.935806921929 4.97859597975 181 190 231
1.09919914235 -1.19558189788 4.98589822986 177 182 214
0.605604927212 -0.0145457903309 4.51480610939 51 40 54
1.5002483798 -1.01540683352 5.38161125172 127 117 142
-1.04537295799 0.659992981707 3.55337095396 44 49 68
1.0702779834 0.0984138441777 4.75889344513 133 143 179
0.344290454566 0.231662500594 4.7223162544 73 78 100
2.47967275834 1.08897127216 5.84970572694 111 115 152
2.42363252908 0.650317942739 6.14213761802 55 52 71
0.81215376151 1.02375532661 4.29594814868 61 70 77
2.67474340591 1.10549909911 6.23005883713 76 94 118
-0.0999283797544 -0.719801300569 3.70681329462 129 122 138
2.20271007523 -0.089683193343 6.2193665215 73 72 90
-0.0254584012513 0.891164556921 3.70709577713 144 151 180
-0.14376725739 -0.441283570501 3.64277794719 169 157 179
-0.79141675043 -0.053111209163 3.85670430309 75 94 127
2.54524778285 0.322129197422 6.25880830694 111 96 119
2.95083420724 -0.55475033461 6.87766611219 161 170 201
-0.151375182455 0.821548316366 3.74726648179 130 140 167
2.17237314561 -1.02974967575 6.09835549952 78 64 90
0.509172187408 -1.09100343526 4.35559308507 151 155 184
0.984874576919 -1.21420203049 4.86560566979 141 145 182
0.0722003427264 -0.919620944126 3.89436554282 71 58 75
2.3140945635 -0.045901334904 6.25742045774 44 37 55
1.63031411905 -0.310174569253 6.11872603212 28 27 43
2.43128153478 -0.11461247585 6.25402102523 91 87 110
1.26761328053 -1.18009834985 5.15638166588 143 145 183
1.27872549625 0.804242471383 4.84861982869 60 67 86
-0.946971097 0.246691131291 3.73561631264 137 140 171
0.776012378683 -0.336117942748 4.48258727797 74 79 99
1.28954479185 0.722992934998 4.89687696312 129 126 145
0.0718572476189 -0.114420295839 4.75995342536 50 46 60
1.75870329958 0.993874070466 4.96673708591 84 95 125
2.55960820192 -1.1656117197 6.54977884549 123 128 157
1.62897920005 0.293411304454 6.00452863795 30 49 79
2.06131361348 -1.09336321308 5.98780036216 113 103 128
2.03559318721 -1.37102803777 6.01540182649 163 168 198
1.37044762784 -0.806619379375 5.20359268408 127 127 153
-0.251996063799 -0.394403423777 3.48141279661 45 49 50
1.662308192 -1.06546003423 5.59791277324 93 79 102
2.43848334468 -0.53543860814 6.3473218128 94 89 112
2.23661277253 0.712819181505 6.12191981111 80 77 96
2.1354104044 -1.30183053493 6.11027085618 42 34 58
-1.03333164677 0.485593328437 3.51633169339 139 165 222
0.993708176605 0.866734339101 4.51178304052 37 43 59
0.0978361615317 0.847490224769 3.98149365853 102 103 131
1.03190578844 1.05022371275 4.50171050971 57 65 67
1.34092451691 0.896425829838 4.86569280919 63 69 91
1.16459217464 -0.148221487566 4.89704175004 119 129 165
2.25613531445 -0.0765044282639 6.29999556179 34 32 43
1.08263376677 -0.86058661893 4.93934719119 177 186 227
1.78665405303 1.02852444825 4.9807104081 104 112 149
2.49034343149 1.11392045603 5.71793446841 108 125 153
0.49240492078 -1.1588929812 4.34657371099 172 173 204
-0.929038512274 -0.024645326724 3.7806201388 128 134 168
1.0058761229 0.858089692282 4.51622281964 78 84 100
0.885797129837 -0.36452011665 4.63879972696 169 173 208
1.64388389865 -1.38889884307 5.59498205473 157 170 205
-0.0142038691327 -0.851323399913 3.80680625577 65 60 83
3.07252994689 -0.024921396775 6.88646692508 34 42 53
0.689719325089 0.897532611824 4.21325236362 66 57 76
-0.897415990168 0.823686696549 3.64035308576 67 71 96
2.83836851971 -1.28169584863 6.87065655838 147 153 189
0.83565479506 0.989010594128 4.33190115598 88 96 119
1.3383751582 -1.414335244 5.26273675681 156 161 199
-0.999586107786 0.506160736587 3.51243008203 129 158 214
2.36240465973 0.893172379137 6.03437174659 51 42 61
2.1398295818 1.07795945515 5.35031208504 93 99 131
-0.0922854595475 0.688618459683 4.27149048574 89 100 130
2.98724517919 1.13299286542 6.54536925812 73 77 102
3.15280696069 -1.13973567356 7.19602517149 163 173 209
1.06979478667 0.773252284845 4.61419821094 60 66 80
1.9184059085 -0.26269848933 6.35155816442 84 80 107
1.50200477133 0.993053864688 4.54910369819 69 83 110
-1.06288228985 0.354729333673 3.46633406118 33 99 173
1.92014847093 -1.35318697666 5.86439161822 136 149 183
0.780752035001 -0.786762757908 4.59543824061 170 176 210
0.881119530163 -1.1729117734 4.75259049227 149 150 180
0.61161201282 -0.945214438789 4.43366822726 172 176 213
0.585766235005 -0.161284457653 4.45024336507 62 60 73
1.25886015348 -0.721821515653 5.08722023143 72 82 109
1.7741918574 1.06754133686 4.82843817277 108 117 150
3.36965043824 -0.924451226146 7.35869873389 163 174 206
0.706103011761 -0.699856685077 4.47034365435 97 96 104
-0.926440380022 0.258416506638 3.76667088254 136 140 167
0.077914690011 0.925896661202 3.64695889447 119 129 156
1.81910866065 -1.44416243353 5.7902278086 116 130 157
0.71379700756 0.886004941301 4.21657841093 86 83 100
0.729577481107 0.786259566843 4.25173940304 89 99 108
1.56525300299 1.00830265114 4.60503551722 102 117 146
1.22289922436 0.237224299909 4.91857577871 150 163 197
0.741145080948 0.874056222153 4.24950635749 53 55 76
0.207300159217 -1.10896255765 4.02166998266 93 86 102
-0.091794781213 0.877096045422 3.63906037892 92 102 129
0.115564039341 0.941188151403 3.68198640642 132 137 167
-0.759107718597 0.739411977754 3.71563849697 17 21 32
2.25717053893 0.683257415553 6.15406311736 38 31 47
0.873522321216 0.734855877363 4.41293209411 73 74 69
0.908448924026 0.924650673558 4.40945354441 51 54 71
0.278505926479 0.890569352196 4.14630552585 92 102 127
1.48954835123 0.0097068825005 5.91695741326 38 52 79
0.785198819214 0.976305694596 4.27739987791 79 89 116
0.466124868049 0.962690439591 4.02048970986 106 120 149
-0.964487228456 -0.386185197947 3.80161066023 104 108 137
0.543481648127 -0.760952302449 4.3444948782 86 76 101
2.24033113963 0.560299345147 6.17737287255 75 66 87
1.19624806544 0.254495171601 4.87265820896 162 170 207
3.00921161667 0.0930694141171 6.82242359301 87 102 123
1.80188013251 0.994432343034 4.99923698028 100 110 145
-1.19540526676 -0.983369470051 3.67266619793 80 77 98
1.31794618428 -0.0110808186302 5.03028113403 72 56 82
2.38337174601 -1.5366566304 6.41532288297 147 152 184
1.584798218 0.93021885124 4.94302262833 104 110 144
1.30839366192 -0.411385574194 5.08666768473 129 111 135
-0.0238730794502 0.532890212748 4.69194245853 60 62 83
2.16502532323 -1.2489266589 6.10527022102 82 84 105
1.13377528746 -0.423863663417 4.90666298537 108 121 155
1.58645437109 -0.262608425811 6.05552404215 74 79 108
1.12473586285 -0.829935267565 4.96351152031 183 195 233
1.63700928911 -0.947323723565 5.65608759062 121 112 139
2.14987370685 -1.00759373318 6.10325121151 49 47 61
0.052032347645 0.673566220836 4.61478997744 21 25 37
2.43684395418 -1.40793014557 6.45592009615 176 189 223
3.1756415176 -1.31114656298 7.2437667318 55 46 73
3.10506384948 -1.20849221065 7.13758115707 131 144 179
0.723809897023 0.0107106250189 4.41525766833 121 118 139
2.01960108864 -1.06733847158 5.97660731188 65 67 82
3.30258092135 -1.30427853717 7.34291795481 57 54 71
1.30407400851 -0.0875818567366 5.04169844356 122 104 126
1.78639933357 -1.11352019542 5.71800724711 25 23 36
0.309775996465 -1.19333615219 4.12134397281 71 67 82
0.914760651031 0.79419192605 4.43459390981 45 52 70
2.50945372264 1.12974406468 5.74048451392 108 113 145
2.56495345081 -1.00558117432 6.52426817068 146 150 187
2.4906010808 1.17026379826 5.41432282652 82 85 116
2.62290485699 1.19979454083 5.55483342826 95 106 136
-0.123722405272 0.845761977981 3.76139741224 108 112 137
2.8505137087 1.12180728582 6.42113629174 58 66 87
2.48022063645 -0.425236022373 6.34680262112 100 96 121
0.199138671603 -0.222027609916 4.87244612446 58 57 63
2.25030450437 0.283877997752 6.2381138968 83 79 102
2.49028657586 0.562099628817 6.17321738795 29 31 44
0.78713925553 0.941438870073 4.28599040903 66 81 104
2.87867538057 1.15050044654 6.44898071331 65 66 87
2.56994406188 0.504481703747 6.2678902446 153 157 192
1.80258450801 -0.207240117234 6.28124489574 83 79 102
1.16592207243 -1.44562985537 5.08363152294 183 195 233
0.699853989437 0.885012286711 4.21076436158 79 76 95
2.67999402563 -0.127216321962 6.49119973876 97 121 147
0.671796941754 -0.832673406493 4.48572271332 164 167 198
2.34751981263 0.85637212101 6.05147971269 72 68 83
2.39143435522 1.11750818117 5.45422395627 78 87 120
0.888531863335 0.841808201928 4.40290825654 76 80 91
2.5106074715 1.0987437295 5.74936204437 80 91 121
-0.889561445396 0.655603750593 3.66110022558 74 72 96
1.86957866611 -1.3726695747 5.81203778061 153 163 190
0.0625942021774 0.909296815076 3.63257660185 100 107 136
1.01423082025 0.865881483176 4.52860829287 56 61 83
0.506479984011 0.963091963456 4.19056726627 72 86 112
-0.901884776889 -0.351008480861 3.85181858968 112 116 143
0.644748299081 1.00911048309 4.18603290752 110 121 149
-0.083035664595 0.744229852802 4.12763112734 106 120 146
2.92868411331 1.15006856944 6.51260944125 92 98 122
0.348539584703 -1.17239926877 4.18491747118 108 101 117
1.71814285851 -1.28067138593 5.59357289768 129 126 153
-0.799963217305 -0.8425398687 3.94930113515 56 77 120
1.58409629141 -0.277351563346 6.05462974812 80 83 114
1.04973767572 0.921306167055 4.55585747532 62 68 90
2.10065757235 -0.129114554392 6.23301187436 105 96 123
0.754174312258 0.628194690218 4.35807298372 122 118 141
0.273058285623 0.856298674166 4.28020282908 72 85 119
1.65563541859 0.978166643269 5.00992415131 109 112 145
0.427708003269 -0.734135250994 4.4376681074 34 28 32
0.281722147147 0.774468770008 4.64669174488 57 63 79
1.6482035767 -1.06585294962 5.55283295921 75 65 100
0.00596605914543 0.906373184323 3.59247832829 111 120 149
1.63975267309 0.495505865069 5.93606387022 19 26 45
2.69431078386 0.560208084647 6.41515369238 170 180 215
0.832118252058 -1.06197965173 4.6879580263 144 149 181
3.29571126801 -1.29881047531 7.31758982981 39 36 57
2.77137239146 0.381646898852 6.50307240417 169 180 212
1.24329392068 -0.256895288225 4.97072187791 80 89 122
2.29128715599 0.901945478948 6.01569955392 90 85 107
-0.153152525204 -0.435467569201 3.62975610779 90 75 108
0.252180765771 0.891246640188 3.97054277213 107 112 144
2.4955982525 0.649027078957 6.13888725907 97 105 126
2.30358975345 0.810379404475 6.05085119811 87 72 93
0.124367092094 0.881145343663 3.84445318271 152 157 186
0.209409941176 0.860885723281 4.11042101653 118 131 165
2.54021178771 0.108440539329 6.31465775631 115 100 123
-0.0162902638926 -0.972739173339 3.76117480467 88 89 107
2.25512286189 0.0391518985565 6.29093896512 72 61 78
-0.30705938238 0.396894181086 4.46217406431 43 62 76
2.13058055069 0.103986603029 6.26432459233 78 65 85
2.01348176099 0.700847168897 6.15199881368 28 27 41
1.0262621567 -0.137751308961 4.75032914087 150 161 191
-1.04412617484 0.799943289015 3.51929279745 71 66 88
0.837989816277 0.843512232979 4.3534579563 56 59 78
0.947176415085 0.619321719883 4.55423273216 158 168 204
0.735100136165 0.752048012679 4.25798003101 72 73 77
0.749250570479 0.929393531611 4.25553829475 70 73 92
0.767104363263 -1.08457006211 4.6192422688 162 166 195
0.769889658664 0.795508313896 4.29772226688 78 80 103
2.67535689147 -1.11194000149 6.64647029176 162 173 205
0.485631961394 -1.1433676621 4.33451681133 137 141 178
1.11877283968 -0.0875323275449 4.84462426644 162 168 200
1.74921039026 1.08963604239 4.61074708827 104 119 150
0.288962062405 -1.17243682702 4.10652366841 88 73 94
0.0438971159816 0.482558016195 4.71715775221 75 82 111
0.979494614262 0.974834578365 4.49618850778 104 106 131
2.95492112807 -1.40645825464 7.0060152608 135 144 183
2.46768098569 -0.0379295189942 6.29729292378 69 65 82
0.848092988058 0.759496883786 4.38158312348 93 96 111
1.78493714562 -0.456176832273 6.29607546819 30 28 39
1.09171986669 0.994308775925 4.58383575421 87 84 113
2.81053609605 1.0443067492 6.39443711122 56 62 86
-0.97146271533 0.640003452144 3.61139911913 41 47 61
2.46281481594 0.199653279613 6.25102068154 83 75 99
-0.111003676194 0.872436508334 3.62586685635 119 126 152
0.922126562154 0.673251987769 4.54966539073 78 79 99
2.18146558938 1.13041709659 5.07811614495 74 85 107
0.155150507344 0.939630133871 3.72091139827 96 102 136
2.47806723685 0.388482225674 6.20091943743 102 98 121
2.48446691424 -1.57096260001 6.52958069683 168 178 214
0.713524064078 0.780976535666 4.23629082906 89 93 105
0.230109192906 0.237923565474 4.81265824562 51 43 56
2.92790524396 0.905124274954 6.59721360319 146 153 179
3.42490930349 -1.84141805406 7.65132985212 108 100 121
2.19635299255 -0.00217252809075 6.23583864032 86 81 103
0.778399746955 -0.968574581952 4.6106067513 167 170 201
-0.804842358598 0.757615006712 3.70208014253 27 25 46
2.94286480881 -0.469497823298 6.87763180248 130 144 173
0.731644850795 0.92582064807 4.22629092951 80 80 106
1.16863297553 -1.03512383709 5.02990835138 143 139 172
0.966945450541 0.894098696336 4.4805797161 80 84 109
-0.154019636659 0.7990979661 3.89970520798 131 138 167
2.04258792052 1.06433500035 5.2507958083 93 104 134
1.816974725 -1.12989786739 5.73970562668 66 60 86
0.624634818439 1.00598827955 4.16550742415 122 135 167
1.27211453496 -0.34448689952 4.98443464164 103 105 130
1.76147025062 -1.10879391346 5.68945672832 104 95 124
-0.0691921507017 0.894026336651 3.65844593848 105 109 136
0.940134776944 -0.84136629617 4.76221143563 177 187 223
2.01366686021 -1.16210499675 5.95134292906 135 134 166
1.76199406661 -1.10511956691 5.68255305858 105 101 128
-0.22807721391 -0.254818445498 3.5368393192 129 119 143
0.771405871605 1.00492999269 4.27374986153 88 94 116
1.87306752735 -1.14031777686 5.80877277068 69 64 87
0.948656765788 0.967868988334 4.45167628252 81 91 118
-0.0547719611526 -1.15574388824 3.80561949256 172 175 208
0.06161007284 0.874422579421 3.79015150207 97 106 139
-0.383490232349 0.899132233506 3.23049736296 114 117 152
2.87085644476 -0.965702209939 6.86262075025 147 156 189
0.928237501035 1.0013456935 4.41675990703 51 54 73
-0.285067945471 -0.29492188991 3.47084215941 60 51 72
0.51017537345 -0.435625055281 4.54181544366 38 31 39
0.990790356936 0.821245225458 4.50808921108 80 83 102
1.45681790623 0.541734467598 5.78779162504 28 49 76
1.27378141772 -0.588115319652 5.02264171027 80 80 108
0.276642631433 -1.08673005068 4.10064128362 110 86 102
2.41157540648 0.875944888416 6.0597811188 53 41 53
1.49217387007 -0.260394939666 5.95092117439 78 89 117
3.13053672611 -0.825199976823 7.09482640579 128 141 175
2.07771966959 -0.0412678328807 6.24889638441 88 84 111
-1.05778503717 0.213335171948 3.63832666279 119 132 166
1.8233666296 -1.3844444996 5.78156901978 38 45 71
-0.913074794587 0.712194786911 3.63197164113 44 40 63
2.5461752856 -1.48674614829 6.57757484143 161 172 202
-0.0414779067478 0.524591285501 4.69881275324 65 62 81
1.10754058791 0.914837240341 4.61098482873 68 74 98
1.41542088527 -0.853288884262 5.26217128341 133 117 143
1.58455730589 -1.04520356432 5.46965409725 120 109 139
2.62272820718 -0.838056766992 6.55434751993 140 148 187
0.734159000782 -1.31666815652 4.62088751585 145 150 182
1.14994137352 -0.461638580236 4.9323455687 157 170 204
-0.208806798894 -0.290763072887 4.74186191254 25 24 32
1.16410196659 -1.1899966425 5.04441885825 136 145 184
1.7257735099 -1.2292725701 5.61009742527 132 127 150
2.65717673158 1.02325243965 6.25272518456 69 74 103
0.827995780549 -0.673362509354 4.62197713498 172 181 214
0.677439873374 1.00288483268 4.1944419403 66 69 88
0.273811462484 0.962661600738 3.83050822859 132 146 175
2.95764805209 1.19049327303 6.51997383191 53 58 77
-0.216561985847 -0.459880898278 3.51386719211 110 93 112
1.50372844419 0.273410188113 5.87394260453 27 44 72
0.835392377398 1.00795771199 4.32836901326 90 86 113
2.93843071663 1.06036822672 6.51304602587 70 76 102
0.116365564623 -0.404228251039 4.83847335435 48 45 56
3.04511688341 0.432283276281 6.80680001418 79 82 113
-0.807206875064 0.527536060551 3.75681503448 139 152 196
2.17498738503 1.1090710879 5.23160574853 115 127 165
0.843211947068 1.02657312202 4.3348305156 76 87 105
1.23481391121 -1.00485808999 5.10505408995 159 165 197
0.971977198826 0.952403971249 4.4853917187 75 80 109
3.08923712395 -0.409437305904 6.99669452083 171 177 209
1.44161531861 1.04730824381 4.31616683639 114 124 151
0.723342647234 -0.0323241032316 4.42452191521 69 77 88
0.163158591083 -0.00634065848222 4.82865822631 66 64 85
1.16542692543 -1.46012792036 5.10666378529 184 189 231
0.969904889322 0.71378052241 4.52775304819 58 59 64
0.178354787675 0.878503477983 4.04696712766 80 84 111
-0.19606927511 0.593201330506 3.40530033357 89 87 75
-0.798498562328 0.515346322352 3.72048552619 55 67 93
0.352887367546 0.857281185468 4.22494418181 91 105 142
2.98444041387 0.235189482092 6.81702786913 148 157 196
2.38137199209 -1.6159520035 6.42873840012 127 136 169
1.23494212554 0.827955367031 4.76303224313 44 51 70
2.43557035492 -0.101299706633 6.26647668294 129 111 133
1.11484846153 -1.05726501238 4.98564977519 136 145 178
0.38885629871 0.943175329854 4.08540060698 102 108 134
1.72897457346 -0.985111061237 5.73611664457 124 119 149
1.84482309045 1.0317217315 5.04965725508 122 136 171
-0.0619999807947 0.921768821801 3.47458606891 86 90 101
-0.0488307241852 -1.14051788855 3.79719739717 128 133 171
2.62146894588 -0.304331459024 6.45144952102 74 80 104
0.84375031654 1.01637656135 4.33706444708 59 56 73
-0.794555548963 -0.0457772840865 3.85624961547 75 95 130
1.65234037651 0.313589610982 5.95177640443 42 62 95
1.94306063363 1.00767908376 5.29245510017 119 132 167
1.58819169187 1.06579255785 4.46905590086 104 115 143
-0.933835945869 -0.150521787059 3.80570075275 117 128 156
2.30790182313 -1.39289181304 6.31360171964 168 179 211
1.20161369302 -1.29285943387 5.1121324604 154 160 196
1.59917798288 1.01305643595 4.65211712452 68 77 106
0.339442977935 -0.942269773112 4.15983830853 73 64 85
1.40143596963 0.941485336428 4.75368861871 54 58 87
-0.88699630182 0.768943827776 3.64568855802 51 49 70
-0.962899843213 -1.04916100675 3.84598169846 83 89 115
1.18476336919 -0.554701030131 4.97691505657 93 103 138
2.38337641467 -0.692484866152 6.30437005142 85 80 102
1.68468195541 -0.985492299426 5.72037422702 108 99 126
0.155340655941 0.846125499192 4.02870792016 104 114 141
2.6488039972 -0.055087886469 6.39635170174 152 163 195
2.94234239507 1.13594738738 6.49831317618 78 83 113
1.02248459413 0.965251529708 4.50977516463 64 68 93
2.98339686395 0.614042228014 6.68642098627 123 108 131
1.79026079375 -1.22273925398 5.6773275753 56 74 98
1.33541241383 -1.20309059655 5.25227233773 166 171 203
-0.790069372826 -0.344868438138 3.8785290119 83 105 146
1.57895197868 -0.992701041639 5.46070610266 34 32 45
-0.219301888628 -0.243636668715 3.53914186489 109 104 126
2.34265955286 0.874964146169 6.06698984219 56 44 58
1.27652762287 0.936708978612 4.78715995378 63 67 94
-1.17552328168 0.124218904311 3.56738486642 129 137 173
1.22360892327 0.644483838545 4.84624702848 160 173 208
2.34901491657 -0.76386768152 6.28458953694 83 79 102
0.363479304669 0.386547611862 4.67241016818 84 90 114
2.35888644019 -0.880901738925 6.26859602979 118 114 131
2.50688247831 -0.267020367134 6.3487747647 112 102 126
1.12598118973 0.965589030752 4.61749420603 44 50 72
1.0613797017 -0.626235239847 4.86109649 168 171 204
0.250139734202 0.881637338793 4.11681374951 97 101 130
-0.0693375917201 0.707029616506 4.29552034379 70 79 110
0.986783579757 -1.30977408431 4.8885680797 172 177 215
0.44238147363 -0.98355129646 4.23230449017 104 93 107
2.5393444934 1.07481587729 5.93416295351 121 133 171
-0.0578852712701 -1.08119519805 3.78563037629 153 157 192
0.706052832663 -0.623748102055 4.44759715347 72 69 88
0.357193683628 -1.16513315769 4.19589664176 126 113 130
2.60802002304 -1.1429423878 6.57471944828 150 163 195
1.1328184203 -1.04044971924 4.97769384971 144 147 180
2.56573655795 1.03554289737 6.12727853141 42 37 60
0.279062165399 -1.1229140884 4.10449098807 104 91 109
-0.0182008332116 0.870424925399 3.71864538914 146 161 192
1.89693823578 -1.59652227267 5.88652375556 155 168 200
2.54605384547 0.454373967364 6.26625233299 132 119 145
-1.14401821236 -0.422938599927 3.6638320403 84 89 121
-0.0593251811782 -1.03903296514 3.77364169545 158 169 201
2.48868091604 0.605439022718 6.17761990119 89 99 124
-0.771310894378 -0.545537603516 3.95830269344 65 70 92
-0.195623704082 0.719224041477 3.39264881055 93 93 117
1.47129128696 0.953536693692 4.67842659908 85 100 131
-0.14256812375 -0.534647391316 3.64580407173 86 73 99
1.52157314007 -1.29267957564 5.45882011402 188 197 238
1.93821612999 -1.12010685624 5.87691152366 109 100 129
-0.0434187904364 0.9052340769 3.54166704281 119 130 162
0.396531474115 0.934166927806 4.09971793457 101 108 134
1.43467133541 -1.49757019043 5.40966965226 179 183 220
2.01441185808 1.08901786033 5.0834780996 109 123 158
1.9830275093 -1.39436821465 5.93828361374 172 186 215
0.991902433476 0.78021701577 4.53172851538 84 90 112
1.74167791851 -0.499938724146 6.25121440583 28 27 33
2.03294037316 -0.161165704312 6.31260284269 36 34 48
2.78205126868 -1.12194097104 6.77246813695 163 174 206
0.795451790624 0.856013840158 4.30891064888 78 84 110
1.65172780653 -0.827002697583 5.79459952771 39 34 41
0.896751282575 0.783116856164 4.42573449393 51 54 71
2.20072452122 -1.04393260851 6.13468964294 76 68 92
1.90377185677 -1.15318022935 5.84558673539 108 97 127
2.85591088716 -1.31983939517 6.88814243845 169 182 217
1.84414429434 -0.124524930633 6.3237446105 39 44 73
3.21938012622 -0.496237591285 7.15782412045 164 178 213
2.03148837416 0.0249984251382 6.28581277222 32 29 40
2.96278876028 -1.58356484435 7.05787933968 138 144 176
2.64169734869 0.888380670476 6.14631332991 160 163 194
1.75755372371 -1.11960897491 5.68369689329 65 61 88
2.96484640446 -0.745239160687 6.92050539543 126 139 171
0.318664720319 -1.16922531205 4.13833654133 99 87 109
-0.926481980469 0.704072121796 3.63582687874 68 64 89
3.14626056924 0.103412480125 6.95876513982 126 132 158
2.13509480044 0.625607541494 6.16906054031 44 35 52
1.57266454887 -0.85776720225 5.71183013209 115 107 130
1.0084747668 0.795931012577 4.5379371116 78 83 103
0.681560535548 -0.443781950547 4.45345287228 63 49 72
-0.124286998423 -0.749013119798 3.68306962356 131 124 142
1.52987652174 1.06114356666 4.41263394865 102 113 143
0.90131566673 -0.9913153852 4.74050924725 152 158 194
3.10979819038 -0.114907416336 6.90929955265 72 89 109
1.19262032559 -0.0509583058229 4.90962818633 153 166 200
2.74395195302 0.320287227473 6.49928608205 169 177 213
-0.939289297037 0.783818581604 3.60291383856 37 34 61
2.24680151516 1.08110216751 5.47387030105 114 124 159
1.1285872462 0.0327381963324 4.83010291114 166 172 208
0.456015553145 0.363598419132 4.58838082359 63 67 94
1.76779540611 -1.2161134408 5.65407811621 73 94 123
0.10626513806 0.913294416768 3.67277106375 112 117 147
2.29107731489 1.10083447012 5.35231164176 66 75 106
3.2268533612 -1.29842836305 7.31349053387 61 58 87
1.68035817257 1.08670712113 4.55083616661 49 72 54
0.807276480936 -1.22690414273 4.68903246703 166 172 206
0.474641846511 -1.0024374881 4.26102367079 85 82 89
-0.204302363606 -0.991982727915 3.61107211047 81 78 85
2.51513983714 -1.01056730822 6.46467799327 134 139 181
0.734866044017 0.762251621313 4.25958204167 91 93 88
-0.081726665228 0.912931483501 3.50167265645 84 90 114
1.5655043399 -1.12509518728 5.42784169509 86 93 121
1.5562846135 0.970069063326 3.33420813315 117 120 151
1.02010879411 0.500158573694 4.6521821047 169 175 209
1.26082227058 -1.40745897909 5.17759851089 179 186 228
0.726472356228 1.00083843726 4.22048651227 106 112 138
1.31832903017 1.01166944739 4.53293759774 47 53 75
1.83569429656 1.07827990007 4.88572108101 93 97 132
3.05606543513 1.27070709627 6.61594045076 61 66 95
-0.893718876547 0.641285023403 3.66400970566 77 76 94
0.923181790278 0.843157683985 4.43602564616 73 74 92
-0.46418778869 -0.0503258229971 4.44958352376 19 27 46
1.61631986215 -1.16391547487 5.47418141965 109 105 128
0.232995412506 0.30346698456 4.80408794219 52 48 63
3.01119495489 0.102108452053 6.82812948085 75 95 122
2.60589031257 -0.869461386129 6.56225963129 171 185 222
0.441652537357 -1.19905196393 4.24303069644 125 106 128
0.168765840251 -0.970349755798 3.99690614758 86 68 80
1.10135898531 0.887162585642 4.61843739199 73 81 104
0.904531797857 -0.350816142546 4.65891930826 136 140 175
-0.35879584822 -0.306947709239 4.61345671723 25 27 40
0.0833234053237 0.907635046503 3.79607903263 110 121 153
0.961649294439 -1.20576296568 4.83738740042 169 175 207
2.67495451741 0.541216936359 6.38694544199 151 159 195
0.753505933127 -0.807479891081 4.55936076599 150 154 183
-0.160600416011 -1.00477905038 3.66850218723 146 150 179
0.157125319306 0.923586833795 3.86158186112 128 141 175
1.13829843153 -1.30342605712 5.02057728659 176 189 224
0.0474265494885 0.867623356003 3.92206977113 112 117 147
2.16940603766 -1.42011131914 6.13445155105 86 81 104
2.71193148887 -1.18744390424 6.70933210483 138 148 184
0.780285080041 -1.16875530802 4.64567301805 165 169 198
-1.03841575281 0.751534176747 3.51032440384 57 54 73
-0.225319100558 0.856242559 2.6612797493 69 73 108
1.83355623073 -1.31209171528 5.78689584349 64 58 84
-0.754972498902 -1.03135010936 4.03528579149 58 65 91
-0.797972731073 0.487881056495 3.79771318356 83 93 120
2.07876835206 -1.16027810144 6.04000631827 81 72 99
0.46317920986 0.838824432525 4.44688695293 35 32 43
-0.127527066194 -0.56471680131 3.63941107222 89 80 107
0.864853265459 1.00869546764 4.3595162099 73 79 105
-0.164797095402 -0.397570246579 3.61745102624 142 127 148
1.07308930623 1.01656402604 4.56539768357 86 93 122
0.905887672352 -0.292440681242 4.63685015672 160 163 196
0.681680927903 0.105036471923 4.39925222891 71 62 79
0.206319793063 0.833619486504 4.22946817007 105 116 144
1.72972230067 -1.09138780266 5.63837146288 28 22 36
0.930622395637 0.62325612758 4.53669969106 37 41 88
1.39223616785 1.02255925193 4.43548165837 119 134 175
1.90213938399 0.346811558753 6.22040116897 85 77 101
1.9023508717 0.267817115899 6.25887409826 89 84 106
0.714074603553 0.851652058623 4.24474813658 117 121 146
1.09629034287 -0.324363018165 4.8525665084 142 152 188
1.8816754051 1.10912009254 4.77736583266 87 100 132
1.51056129728 -1.03458189536 5.41120732383 130 120 145
2.42627667367 -0.113166171633 6.23154516674 90 85 107
1.20805120487 0.307217449668 4.87711851346 166 177 209
2.11786776 1.13001864813 5.03212295768 59 68 97
-0.821824389684 0.707763813782 3.67650996353 52 49 68
-0.220912010799 -0.343446822479 3.5077082249 60 58 72
3.11035759285 -0.259836569734 6.98003165773 48 54 80
1.95156327015 -1.58403617119 5.92291732817 74 76 114
2.06891510974 -0.0560876782587 6.24787483982 48 38 62
1.8500335475 0.0747451311994 6.27464362172 20 28 47
0.150194755647 0.866426616289 4.0214283879 120 127 155
0.707653020183 0.963462556532 4.19918991955 85 74 90
1.8004943484 -1.46573195941 5.78854143995 126 135 164
1.26329632939 -0.962530342754 5.12005202377 169 182 216
-0.146011411761 -1.15033691177 3.70320643879 152 156 185
-0.946607143863 0.706102736725 3.61139912825 48 43 65
0.20040976066 0.805687650333 4.23204730025 100 109 142
2.62025424883 1.05836880273 6.19391773279 73 85 109
-0.0188679065857 0.90909303945 3.56039917279 134 143 172
2.88857073326 0.883786268076 6.57458710377 126 111 130
1.46305384691 -0.678836998718 5.73024965828 137 132 162
0.375116960937 -1.06510128003 4.21243709581 109 85 101
-0.321326758264 -0.423365253273 4.59707643783 23 23 35
1.63241078635 -1.11758774957 5.55374641158 115 97 123
1.64910414123 0.987595164278 4.85429128589 65 74 107
1.76301389775 -1.33971081199 5.71814636828 120 125 154
1.78858014866 -1.32048012621 5.73543963462 113 118 147
0.284580687752 0.933527352522 3.84190376572 115 122 150
-1.04833065872 0.284524571455 3.50169207019 164 187 237
2.1659719678 -1.01410382511 6.07371088954 96 92 115
1.2848203151 0.208389103861 4.96114016514 103 90 116
1.24339013619 0.0291383725974 4.90896954962 73 77 104
0.708035651587 0.876081520325 4.21138808195 54 52 63
0.431213934688 -1.07197255969 4.2327762704 71 67 84
2.92643087205 -1.35189349992 6.96426056678 170 179 212
1.73601725344 1.0488862576 4.76983620254 116 129 163
1.47421041568 -1.1495506052 5.36645775332 70 85 116
1.52418929675 -0.282300707785 5.97325246198 110 109 140
0.783897102829 0.315344571988 4.43766577275 124 116 140
3.30063732343 -0.91051077134 7.31585676128 139 150 182
-0.096476865217 0.358661143155 4.75125149667 66 57 76
1.60404718405 -1.28063658692 5.52791914941 136 145 184
2.13279818649 -1.04211815786 6.07597817929 30 28 42
0.824742651863 0.869123380779 4.33454183623 47 48 66
1.66556645858 -1.11297686114 5.57729314854 65 56 87
1.47767798341 0.531070180105 5.80651722561 37 54 82
1.85258149232 0.699658961657 6.16302111394 44 49 68
3.133792188 -0.9911272741 7.15034819634 159 169 205
0.457664445856 0.843257255097 4.47095705395 34 32 45
0.923392987694 -1.2385015901 4.80846156339 173 181 217
1.65809028397 -1.34139968698 5.60406542714 125 138 173
1.32005646669 -1.17197625442 5.20846009162 143 149 185
1.93751361769 0.942898806087 5.09600576047 104 112 151
1.7232024713 0.984854168728 4.92725114762 85 93 130
1.97965283856 -1.52736782079 5.95260171449 143 154 186
1.75492662082 -1.14069260195 5.67748255035 113 102 134
0.2410822387 0.879488387733 4.10932049197 102 108 134
0.315178538211 0.940315410059 4.02006840817 97 104 132
2.50077247998 0.478179805882 6.20399107006 125 120 142
0.896756583864 0.795988854122 4.42898670515 71 78 97
0.317355405376 0.926926149323 4.00949615519 103 113 140
0.752732762679 -1.20599101052 4.61622766138 180 188 224
1.77456060384 -0.252640571712 6.24106975177 115 105 132
1.94833342603 -0.826242464345 6.1069253711 59 50 71
-0.987155515998 0.81599917023 3.57587882361 78 78 104
2.98292130989 0.576399944694 6.71880673063 168 178 213
-0.17304312921 -0.223980600335 3.59363823622 103 95 119
2.12242877937 -1.32602333947 6.10304037806 61 58 89
-0.107081208618 0.842609475821 3.63711374156 126 139 174
1.03613173072 -1.21614379589 4.91888534119 131 143 183
1.27888414863 -0.561963968475 5.03675769594 70 76 102
0.711579208392 -0.750537318684 4.51422330992 150 156 188
0.857659628151 -1.08841290304 4.71197104655 141 145 180
-0.832486770338 -0.460969518218 3.8934303256 63 70 88
1.73360417786 1.01724082749 4.92589627662 118 128 163
2.23002700343 -0.988772476733 6.16678632357 67 57 84
2.85880828757 -0.988741452259 6.84087923028 168 181 215
1.47679055938 -0.257707984196 5.93434543201 47 43 66
0.0490424291139 0.868304006627 2.73880939006 66 83 101
0.463795978583 0.958385408535 4.03101342128 110 121 153
1.65680961508 0.0144127262217 6.01363611963 42 63 94
2.31895319305 -1.63134815578 6.35513880173 152 162 198
1.98228336851 1.13145700076 4.87174617725 55 74 54
2.58730140248 0.547744299829 6.28431824096 111 106 136
0.811828906587 -0.615707358806 4.60149848469 179 186 215
-0.274238508011 0.903326212935 3.25820582299 97 103 127
-0.837412971139 -0.372657368797 3.88690732175 90 101 133
0.927162357209 -0.993967371058 4.76898765436 145 149 186
1.69661772241 -1.18829368484 5.58002719278 71 71 79
2.41956465748 -1.2152050357 6.40018125777 142 152 187
-0.797557837571 0.89932747445 3.66539089289 29 36 44
-0.228996443533 0.419388435233 3.50414991343 46 44 58
2.79173817633 -0.964825216413 6.76098417427 140 146 180
2.65897924939 1.12031202141 5.90910694916 99 113 142
3.03314523663 1.1509835015 6.6132943834 66 63 90
0.932347296126 0.827130553873 4.44492719781 56 61 81
1.08269316209 0.245363915424 4.74752950027 155 165 200
0.591059683466 -0.361367517237 4.46483474948 78 75 96
2.07149067514 -1.42465951266 6.04421997058 145 160 189
0.481234815286 0.894504389141 4.33962429722 60 67 93
-0.269219330382 -0.426916624421 3.50259344782 88 79 98
0.0624944552214 -1.13602151221 3.91401492009 150 158 194
1.00226213779 -1.30375377594 4.89729190627 176 182 218
1.48612061736 0.954749045895 4.83325180122 108 111 144
2.82002030494 -1.5137780981 6.89165118826 148 160 198
1.13889269635 0.87470982432 4.64809061803 62 67 87
3.02927186553 1.10487169057 6.62333105192 42 46 71
-0.103815063484 0.847800668747 3.45112121402 93 68 89
0.820403185682 -0.504875569778 4.58792725279 162 167 199
2.24627373416 0.450123053136 6.20042752257 81 72 93
2.49595411808 1.19565727675 5.41380236818 97 112 143
1.29313720625 0.233109286448 4.97880566876 124 109 132
2.5690731725 1.13208845772 5.64384014924 123 132 165
1.6306067644 0.0252956265827 6.05568219777 33 49 75
0.903892669206 0.772863817604 4.43916303454 60 65 84
0.76131945242 -0.965230413297 4.60067871176 181 186 224
-0.771828330627 -0.480351400716 3.977683098 49 57 76
-0.00860191488802 0.802545193764 4.03196892089 97 106 135
2.94826710886 0.923274323065 6.61087284342 127 111 137
0.755702201914 0.806317350504 4.28470929122 88 94 106
2.82341289932 -0.987370152928 6.81109481207 167 180 214
2.69734271561 -1.22348762145 6.70233107783 167 178 210
-1.12875666253 0.344099172882 3.45328241299 94 95 126
2.46951421309 -0.0390172549297 6.29645351791 70 62 83
2.76547135354 -0.31083109899 6.62325586923 150 159 190
-0.788246941335 0.629967355478 3.72260216446 91 112 159
2.02173552768 -1.09847717704 5.96307124689 38 34 48
0.708021324931 0.809128153927 4.22262329741 101 102 120
1.5518380518 0.955317187165 4.90826605603 121 133 173
1.79638048018 1.03415623185 4.85006591727 82 90 126
1.86079754937 1.00187969724 5.20487415442 106 107 138
0.0175501915902 0.745341981466 4.36627514232 91 106 135
-0.791487764903 0.0751953702395 3.85344269747 82 88 120
1.45952205004 -0.417208580875 5.9924639064 55 53 67
0.757541734227 0.168741887647 4.43740202784 102 93 120
1.07324905728 1.05107334847 4.544667339 70 68 90
1.17325494179 1.01558611232 4.60340833775 44 43 57
0.720213816021 0.941418179334 4.21461627728 103 94 115
2.04955199466 -1.38213346899 6.01940538996 46 45 77
0.96524443792 -0.0184956898999 4.66829960444 140 153 185
-0.378692483251 0.451344285425 4.45754286164 31 49 73
-0.149465644481 0.855676602341 2.63237022088 72 75 108
1.8171156621 -1.14962991994 5.74400556975 101 95 123
2.87846865571 0.801322247553 6.5498684717 132 120 142
0.360081057113 -0.993570798784 4.14902126657 91 72 92
0.0652661740858 0.915214979192 3.63072593935 99 114 137
1.56622104174 0.951026931143 4.92716714392 120 132 172
1.44419912712 -0.896488548963 5.30140929953 127 113 139
2.08664110736 0.717819015367 6.13615417183 64 48 59
2.41951651001 -1.54650328539 6.46636339394 173 181 217
0.690861319871 0.915172691107 4.21234788677 83 74 91
1.78273638792 1.00402660894 4.98401859978 113 127 162
-0.184698104217 0.584774885177 3.42791186471 49 53 64
-0.139100124611 0.844378934919 3.42306009982 73 73 123
2.56994896458 1.04371433732 6.07597463642 63 77 106
0.534027791918 0.975812747558 4.08350075633 97 111 140
-0.75245376775 0.835748301994 3.69856181836 45 56 78
3.0990726773 -0.34296139553 7.00331486414 163 176 210
0.655313032257 0.965570015241 4.22101450846 39 38 52
-0.104643063445 0.728995427217 4.26104599681 101 114 146
2.93111069131 0.882357294848 6.60322972521 150 156 180
0.157844593852 0.88971757389 3.87757666077 114 122 145
0.833034640849 0.821577643548 4.3475605628 78 82 107
-0.175912853131 0.768926610983 3.37538122932 220 230 255
0.874733119841 -0.909978521948 4.70527719191 173 178 216
3.10221381082 -1.04544172702 7.11646426671 132 141 180
0.0532945208351 0.937709913395 3.62171441498 135 146 174
2.60152202463 0.3619741092 6.31751698825 106 93 119
2.90112046019 -0.124597385055 6.75554630183 138 149 181
2.93540422909 -1.40102311244 6.99805402931 162 173 203
2.26057022247 -0.620273656504 6.27575619034 94 84 109
2.86231359551 -0.208066205853 6.71351762414 163 169 201
2.53931400739 0.346822436101 6.2329863142 117 107 132
2.26057764465 0.973099292641 6.07749900399 112 121 162
0.517109332027 -0.137105312344 4.54574088022 64 69 88
1.09788648182 -0.754240882481 4.9127682451 173 182 215
-1.12028886989 0.688175971981 3.46344593351 77 73 100
0.379055856394 -1.20145502877 4.24175366613 69 56 84
0.405864174887 0.955705689909 3.95481478571 124 139 170
2.51472002383 -1.60338555047 6.5715391765 160 174 211
0.946125772806 1.03807736621 4.43983474404 68 62 88
-0.812597959182 0.0676091831826 3.80603841525 69 80 108
3.05211810379 0.372793872884 6.8239531428 77 83 115
0.931345573169 0.835161494187 4.44551993846 78 83 103
1.60003319842 -0.28768045434 6.06396627373 84 83 115
0.554141417947 0.269753955662 4.49606633531 82 92 119
2.40628686655 0.913885730768 6.02964665859 28 28 38
1.70150850799 -1.09493143002 5.61487244236 68 57 87
0.233001605631 0.391068670021 4.78737303984 58 55 76
2.47291435809 -1.14790651948 6.45969006674 155 161 193
1.33837170062 -0.76122044805 5.10299830922 70 80 105
0.712052924002 -0.630092093277 4.45786870513 89 86 107
2.15195095167 -1.20112545077 6.07934632405 109 119 146
2.0698142157 1.13562715965 4.96858054308 83 97 124
0.641212884633 -0.331989595752 4.40104001429 55 52 69
-0.0981147403927 -0.742167653457 3.70524709998 116 92 116
2.73508914221 1.22101346624 5.66573343988 103 117 143
2.85563245665 -0.114783946353 6.67459712941 159 173 202
0.169504455949 0.868642241354 4.03978591702 129 135 159
1.30124054936 -0.495270227644 5.06355409038 124 114 139
-0.0016613166463 0.856207844062 3.88108743729 118 123 153
0.810754874771 -0.19702260133 4.52050896269 85 79 105
1.49161574571 0.541059395125 5.81949741554 49 72 113
2.09088283579 -1.11674859535 6.02950334286 64 50 76
1.63230883398 0.639613802106 5.94737450926 45 64 106
2.44821599344 -0.147085329474 6.32158801935 56 47 64
1.25923367882 -1.28993964946 5.16671848849 151 162 194
1.54124475025 -0.992105312419 5.42264928072 125 113 137
0.777926906404 -0.820510293346 4.582861188 171 175 202
2.30814216174 -1.29211704682 6.29745547817 167 178 210
2.33570646335 -0.677972828391 6.28160427933 81 73 97
2.59962855824 -0.249015112509 6.39168798456 34 32 54
0.15266564694 -1.10693822943 3.95428633899 84 67 83
1.76488300302 -1.41700881843 5.73740335644 144 153 182
-0.121030078963 0.72654089085 4.24092945098 81 90 119
0.315673865948 -1.05624743693 4.12139269467 82 64 80
2.24873193951 -0.154587242277 6.31487832037 49 41 62
2.4312844229 0.886793352295 6.03717220468 124 133 150
0.254304990487 0.41273491358 4.81761785038 80 84 109
3.06732247519 -0.746090726673 7.00939163587 153 166 198
0.789640229894 -0.373607075334 4.4942889667 122 129 158
-0.963352442934 0.516647671223 3.52479405136 71 85 124
1.25750553426 -0.36374865193 4.96913299232 82 86 111
0.188452146992 -1.04804179749 4.00281607728 94 90 79
0.152436717333 -1.05503861059 3.96801796773 104 94 103
1.53000677675 0.967638572096 3.32757982995 71 87 103
3.09259170712 -1.29469337697 7.15799131608 164 178 215
1.10685186662 -1.00892335559 4.96813313775 171 182 214
-0.774853674059 -0.56740924309 3.97638348126 64 68 93
-0.0771486961116 -1.01386991619 3.75485032136 156 163 192
2.18881536238 -1.00700572393 6.13350224448 32 30 44
2.44628287223 0.874947226085 6.07849761927 121 100 119
2.72299923691 1.23161405362 5.64224613438 58 76 80
1.54931212523 0.997692564807 4.74072765741 74 83 116
-0.0289981423777 0.820371132326 3.86279974932 135 142 170
-0.918048163146 -0.808854837304 3.88760728466 68 83 114
0.777298148625 -0.290897752533 4.46946601621 81 90 99
0.928070422598 0.937146325278 4.42377820135 82 87 106
-0.0046077341489 0.924210142392 3.57332419033 110 116 142
0.766709764404 0.915082879291 4.27021340483 79 81 102
2.16468011185 -0.299941708459 6.32906996347 49 47 60
0.821527059492 0.940618749063 4.32430640824 78 93 116
1.29349999708 0.274213997196 4.96561771803 87 73 98
2.99254543856 1.14473319817 6.58380267984 62 64 89
2.32051495906 1.17264933045 5.22288362028 24 51 34
1.41218138128 -0.773194258922 5.25966041326 46 39 57
0.902535360605 -0.866248192366 4.72465228639 169 178 211
2.5724539513 1.0547813264 6.1420349514 66 79 111
-0.145232379235 -0.394208398423 3.63567956362 156 145 162
0.512927121421 -0.166192934212 4.52823982448 43 41 54
-0.968715507054 0.627914532206 3.54970650338 38 54 79
-0.0106741965437 0.717418978277 4.35054450209 77 88 120
1.80435781755 0.927604683164 6.10099394122 67 67 95
0.269854644831 -1.13498089838 4.08913726412 70 68 79
3.37388322143 -1.00015212928 7.38552527271 126 131 171
2.62871633915 0.120098201575 6.4123106608 175 189 228
1.55731135561 -0.831037845184 5.69238049249 125 121 144
2.61736540796 0.592247417186 6.26657690681 167 177 213
1.68931664266 0.951207954239 5.22541107405 126 138 178
2.82759988087 -1.5869685916 6.89145682426 133 144 176
1.1464779837 -0.12611086361 4.87033781262 160 164 199
-1.08162625938 0.241670961635 3.62155874836 135 148 182
-1.07252913963 0.43230250511 3.48866487986 52 133 199
1.61610251923 0.566347379534 5.93940533615 48 72 108
2.11208893078 -1.02656616166 6.08119112965 83 85 108
-0.219024130188 0.394902823955 3.52147404118 139 152 186
0.324898953802 -1.10815609265 4.12974287154 73 67 81
-0.220332081008 0.899792018224 3.31549287755 70 62 83
1.10124359082 0.717663385057 4.67088640942 96 97 91
2.42935066444 0.857892182319 6.05732896113 128 120 135
1.57338416321 -0.877258540921 5.72923362306 64 61 82
2.58820562554 -0.425457927764 6.4109099456 28 34 50
2.38008083618 0.319794826163 6.20606346795 64 57 75
1.1666078613 0.723976581036 4.62300534117 37 46 79
3.37291580443 -1.52455173854 7.61889353294 101 104 135
2.17415136215 1.1049203507 5.2279653891 112 126 163
3.42989268943 -1.04552048268 7.4791667173 135 145 180
2.32615746219 -1.38250516454 6.33330906204 158 158 194
2.01656052104 -1.12512398663 5.96148759912 101 88 114
2.5102086705 0.121454054974 6.28095114717 109 106 125
3.3057857843 -0.470820476905 7.20127317468 70 84 111
0.33929417512 -1.18395004416 4.15411962164 124 112 134
1.36829514684 -1.36112978106 5.28752494411 158 164 198
0.913231952029 1.00657588824 4.41132846717 66 70 95
1.11069361929 -1.21911364179 5.00573336386 172 177 215
0.977455560537 0.84612366121 4.49343966069 87 92 114
0.783234290438 0.910778252223 4.28993928631 52 59 78
-0.278280443259 -0.583446571788 3.52049163315 97 95 116
2.59601344951 1.19118198834 5.52978717966 77 82 114
1.29950399484 -0.0876264933397 5.03632152203 122 105 124
0.790030656456 -1.24829145236 4.6702691744 143 153 188
-0.206794584917 -0.703675550988 3.57941599847 76 67 86
-0.20252426861 -0.369491092649 3.52375593271 89 87 108
1.24937211411 -1.35709706016 5.16425845355 182 187 229
0.248732136051 0.776576601446 4.68582217523 53 55 78
2.49814834137 -0.129900551451 6.32987358983 37 33 47
2.00854674479 0.246305477202 6.23888434071 104 105 126
0.298562808901 0.510937201532 4.72130082407 53 54 74
1.50393152446 -0.760954868186 5.63383101508 121 113 136
1.07412440362 0.551219311842 4.69705239534 172 183 215
1.44630453969 -1.37488064241 5.37370513464 184 194 230
2.88631530414 1.08701581613 6.47077602749 38 42 67
1.90523645487 -1.45528564183 5.90098344573 142 151 184
0.999448921104 0.892145259946 2.64712631673 116 113 142
2.37668476667 -1.6539036534 6.42352664953 156 169 203
2.70747288509 -1.66495245587 6.78680477038 137 141 178
