ply
format ascii 1.0
element vertex 888
property float x
property float y
property float z
property uchar red
property uchar green
property uchar blue
end_header
0.373860956814 -4.6048516229 44.5669348149 128 115 99
-12.619147179 40.6575904791 -537.685786007 237 220 213
244.618030593 -34.0778381989 1210.20562745 185 147 126
8.66763466115 -16.7058559864 186.321123247 169 142 115
6.19752048715 -23.0590642181 359.821439585 94 65 59
27.1631531729 15.2219155893 -308.565782663 96 66 64
-3.83123045729 -11.9713926218 -273.905262483 193 205 221
32.2588880691 -40.1471605318 350.192936333 58 57 29
-6.29905170192 -14.2765992308 -805.78122763 98 101 118
-86.2967115121 76.0501495565 -4001.7652302 149 138 132
69.9927539733 28.1793560847 -429.69263416 222 206 193
53.7539777555 -55.7836084929 358.615880783 112 107 51
50.0613124426 -125.750800489 894.409048229 195 193 84
48.8480871584 69.6922261507 -576.337986496 114 97 51
-1.1610971834 -94.3448347744 586.698229941 91 65 52
5.04752866315 6.72111889478 -135.152518079 29 30 35
-254.188663485 33.5147213727 -1420.19813635 113 83 75
-103.994641207 60.3813078811 -731.891706195 149 116 81
26.6321976257 -6.62526570265 -148.687673268 94 123 183
55.0159750945 -49.7308440221 350.787147809 100 101 57
10.7407645401 9.77126522009 -639.821452585 62 51 45
5.20226686693 6.45329494255 -136.784313268 30 38 57
-64.6098514991 -104.120257513 1013.37602045 85 78 50
7.3956471386 -12.1884347069 253.449667207 32 45 97
3.59282195667 -42.2677691838 -409.997257614 91 86 92
33.758480885 -32.1242413961 457.786734274 218 191 182
109.76021232 -59.4515571186 535.476770505 94 88 36
3027.52037672 490.283332653 -13705.1745833 233 214 210
-675.482108834 -633.697377524 4844.66084505 118 103 82
-4.98837195445 7.81434291501 -223.579885608 101 91 89
-256.031300864 -58.6646432081 1508.63018468 93 68 64
-147.95358089 -28.6356536685 -1737.06208329 99 111 133
46.8601561615 -59.9860519791 354.905197538 255 254 227
59.8430161113 -73.3230904108 480.520286957 106 98 26
122.576315652 -139.061796661 898.061974232 110 106 61
-392.173604504 95.6192627631 -2073.1797624 191 164 134
29.2768756208 68.5310848852 -557.421470787 108 100 61
-3.88769070287 -2.64831962069 71.2093818216 53 54 75
711.516119291 -926.92275087 5828.11848717 120 120 60
9.69727246658 11.6283709531 -322.041746538 62 57 54
-186.19735609 -341.953923061 -3065.52844301 179 195 221
339.648715488 -220.576702576 2063.68353306 89 82 36
142.143338034 -27.4388748565 793.032317416 190 144 131
27.2859277252 52.54354592 -400.593435467 198 191 75
51.9504829115 -48.1594866929 310.601396887 123 123 59
149.698325319 -290.47274331 2035.87814303 205 202 89
11.1100708108 -16.6680904713 118.199063477 213 205 98
42.0729313943 -45.2794947722 450.186186146 141 108 77
-27.7183378598 23.4612258625 -385.503644472 72 50 52
-33.7652637479 -50.3864657069 363.29911425 187 170 100
2515.5156938 1627.43337673 -10650.3802591 152 141 109
11.5383860051 -15.5987198317 191.147755118 167 148 116
45.5453867631 39.2074114249 -393.085812811 192 177 154
-24.6093713207 4.36911542522 422.872927709 86 108 149
-22.6836183133 79.4740658922 -2214.880861 86 77 70
659.953624162 -43.2746708442 3173.27036036 93 60 51
-69.7497168337 -37.2710988977 314.721667488 111 114 59
25.28806441 -7.23771220138 141.47683687 176 148 111
76.1954953654 -20.5286567384 464.341708133 173 137 115
-637.138728963 189.339957928 -4698.85189471 54 33 32
18.1112969397 -22.8514219209 172.110070187 74 60 21
969.513133541 -605.869459582 -8385.17085263 122 138 174
7.40383406499 7.21842609863 -132.637821148 93 64 60
135.147803866 27.0804382804 -729.84704166 113 77 77
-26.5393451878 -49.1324821775 366.495076397 182 163 95
34.1365777966 -23.2264134609 322.305171311 190 158 133
-0.0744415042143 -47.5171065936 -498.670575415 78 75 84
52.0749369454 -23.7299938822 398.772754835 187 152 132
-68.7752180089 -96.7792706928 -816.939715182 113 135 176
34.4181851017 -40.0959589438 237.655573897 251 237 210
-383.846027292 -216.094031964 2243.60060921 159 143 130
6.08477701616 6.05621600672 -134.900796426 41 47 83
51.8241193173 19.8258249677 -443.30788902 101 69 74
15.1873673648 -66.7816331864 408.681241223 178 169 140
-102.381991464 -83.0299619236 -1445.04368679 187 197 222
-2.14102364748 12.4021349739 -197.821618489 88 59 45
193.843882348 49.0053405326 -1081.37869469 212 189 183
-281.784128575 -70.8075738808 1514.33474481 224 205 198
26.8643259502 -132.284522152 -1442.49913378 192 185 177
-0.416181632334 -13.6453616444 110.228637238 83 72 42
12.9096320104 10.9504308508 -261.638349102 51 56 94
27.6290907311 -49.2390264072 -1023.31351111 114 129 160
216.68486584 38.5155693249 -1146.36147115 95 70 76
179.663152636 -55.5001193265 883.045022713 150 126 90
321.390171425 -93.8212212087 1593.08933912 148 122 87
9.18157406738 0.116471710685 215.977173654 91 93 116
61.2153355759 -105.555610804 622.123051735 255 253 203
14.304929824 -22.4381923693 -392.215546139 189 205 230
-3379.31933636 -510.499488476 14690.2416579 215 197 195
-36.4310830975 -50.8977791889 414.901929912 127 111 60
-31.767448938 -51.1942316619 496.102748033 75 68 40
1.07322173375 5.68486674978 -60.3485353556 148 145 136
-69.688931839 -12.5439636905 400.171702038 78 55 65
20.1421594886 15.9929376636 -237.35340951 217 196 177
1023.7908863 358.383612393 -7379.67410347 247 226 221
50.3149476999 19.698615967 -449.578955595 101 69 70
27.6693106895 317.7759779 -1893.56797981 79 69 59
-372.003242272 -288.461489759 1716.80154472 249 248 243
60.812398966 -68.2958276757 466.857423053 82 86 53
19.1010866594 -98.255670797 -671.243022105 175 179 190
66.5204836302 -13.5521133759 684.485224082 54 74 135
-65.7147784797 -30.5195300428 -472.375983016 98 119 162
-67.2556146518 -8.5263873065 307.668235902 83 68 75
105.074842142 -70.2029534087 479.712495225 85 83 34
-297.006241116 -51.1880949183 1716.21192276 71 57 74
21850.5236183 17429.6196633 -106147.679133 85 98 106
-3.2757569637 59.61942686 -534.194223709 98 87 59
26.1845174151 -128.458983789 1077.63931663 126 122 77
-10.1028544505 21.2139607165 -497.006584832 48 51 92
2.69807954504 -21.230338477 159.975888885 137 126 64
-29.682225784 -56.3179905607 428.394515903 206 195 89
19.8927518606 6.50595668931 -512.78342613 123 117 117
23.4072009837 -31.2332601447 179.177013287 246 232 205
494.868824316 957.225516222 -46013.685755 54 49 45
-5.95404550605 -24.3021735776 179.918332037 207 190 100
55.1585005943 -55.6297393272 406.856239992 195 183 71
-100.086540285 -99.1884426388 -1604.63892827 188 199 221
87.6721608305 -79.2066154419 593.234694079 190 183 69
64.6984760946 -76.2177086326 474.439419439 165 167 66
35.8535568927 22.8734928782 -356.85490428 231 220 214
100.701850231 -57.9062850811 494.652986595 115 115 43
25.8853544602 -66.1816951548 425.479194241 73 80 49
-45.5764305527 -10.3658432157 253.100584375 230 193 187
27.9570675813 -34.7900533805 239.513628133 83 85 38
3076.99203216 2706.81116997 -16170.0742065 61 74 82
27.3320787769 38.9694969118 -256.052049044 238 214 190
-112.304543641 -88.5724594744 871.312916512 212 196 180
73.5244912966 -23.9944808333 323.056093231 128 111 85
52.0915217222 5.73190618052 571.860642996 48 46 47
66.7398896027 -62.8041514672 -1104.8481384 118 134 168
1.54256539376 -10.9836375173 92.9874434296 83 79 34
-22.4163990963 -120.657954262 861.811128823 86 60 45
117.675762669 -79.6277458807 535.501377923 106 106 46
-0.18861457066 -183.103319774 -1137.80358143 113 129 162
-176.143392267 -332.221518204 -2619.62065443 179 195 228
20.9978010079 -52.4987229379 373.771622204 195 193 84
-13.3203813339 -13.4304533818 -338.275303176 106 118 132
2.41847341581 -12.8254132621 105.411784615 94 90 45
1.67366499811 6.1864040414 -63.8875124024 169 166 161
-0.878478332476 9.75308160196 -114.424112938 53 43 44
81.1487850864 58.699899051 -559.466649834 213 199 186
24.6739317135 -29.3349781436 851.747257793 106 99 93
147.887872112 379.217093829 -2284.21628434 255 255 246
-297.072345872 51.7514241375 -1750.29696523 114 66 62
16.2749402895 -37.6816605094 255.180890741 181 176 108
72.2560169165 -43.0675012145 416.522483177 93 86 42
8.48655965611 16.4202848841 -245.079902018 229 211 197
-56.0776580376 -17.1675007204 407.352788583 87 72 77
9.37530322465 -24.4799390973 1702.71829901 118 101 91
10.2139310539 -27.4760368016 206.624628194 100 87 43
-16.0836954021 -173.610116244 -1153.95081036 171 186 207
66.2404902782 60.1872730635 -1064.91991803 99 76 68
-9.9995131462 -49.6644725732 321.994314152 112 86 61
-13.5746147122 -158.256884337 -1257.17380251 207 202 198
103.54444592 -69.6947223076 463.711124164 114 114 52
321.535175738 195.966650674 -1825.71939627 190 177 161
-3.14928905553 -2.34759328896 60.8028916343 56 60 107
32.422264509 -41.4080662135 291.063006061 197 194 87
31.7826838883 -47.113546785 314.383763899 99 94 52
-18.3267631059 -23.0470080883 173.124994608 178 164 75
-563.043490133 -517.447662605 2989.60847435 77 86 83
67.6564435471 -59.8707425187 383.804281323 129 130 64
-47.4987195265 14.5391290116 1080.19643003 99 112 154
-13.0440408453 -155.170166408 -1133.42379945 81 87 103
46.1117261342 -43.4997719503 310.664711515 65 60 18
717.225142717 5257.45450212 41130.7732667 163 169 181
45.910732946 33.5630609445 -622.561900821 92 67 62
86.2836743367 -62.0806623622 474.198535769 125 122 53
15.1557624023 9.28179304135 -220.188409838 29 35 69
24.3302218037 18.2397397886 -310.679514528 219 201 189
211.220036961 208.170524907 -1241.43584219 167 138 120
-793.064546099 308.106132366 -3603.34219571 52 44 21
3.53386440104 8.00083186169 -88.0034736369 69 60 53
14.9507999485 3.76180288449 -699.073995926 171 166 163
-101.947381176 -64.3840534009 479.514732684 204 202 91
-178.235191232 -35.4405308718 -2044.16635131 99 113 142
1422.77250666 1328.94420742 -10164.0406266 118 103 82
52.4803306032 -64.5302683324 421.82938492 109 100 31
63.6122880653 -33.900567583 -345.243917555 191 207 232
279.753387215 130.540193166 1990.59244697 99 120 163
-9.64980359917 66.4908107396 -590.3572706 82 76 44
102.050459239 -32.9780576287 445.877053465 126 109 83
49.3334148652 31.9906677929 -359.464603334 223 213 204
83.8631946782 -75.4106036693 565.657544556 193 186 70
-13.5948070035 -67.4928135467 406.022831347 99 84 65
8401.72760353 9223.43136784 -91360.0226938 101 88 56
336.672483976 -124.420153822 1590.80467713 157 128 96
7.75157286178 -21.2319468197 149.70948304 207 200 96
62.3884564793 22.3642754357 -495.445549027 90 69 68
150.908978895 -15.2237660727 866.760086467 64 57 73
2.00633069477 4.26645246209 -753.712684436 170 161 152
110.470524805 47.3968930831 -982.563252814 119 87 88
40.1211122567 26.4722855322 -498.047106257 92 69 63
4.38638445204 3.91974718639 -101.928032078 77 72 69
162.687263436 -29.9909930578 909.872378633 200 154 139
-62.3926331115 -85.0740469614 -722.233086928 112 134 175
107.329419049 -34.5782058689 472.607349803 131 114 88
15.5591330629 -19.5333268744 557.015752337 122 114 111
5.3353182077 -13.5252190528 117.157095145 96 90 56
5.13641607848 -33.4879199602 241.37235788 210 191 88
-315.102685451 -261.352944222 1514.95147609 100 100 100
-14.2772195183 91.2296144763 -1013.31597244 49 42 34
6.65537084289 30.9625741354 -457.238665709 58 45 39
35.3685394723 48.773552104 -369.88628505 203 192 74
12.6645671642 -37.157749476 230.91264275 143 134 95
2.29739925638 -34.4704248679 248.260076253 218 195 115
-24.6633296887 -50.363523444 347.961737729 187 166 109
-27.2049265766 -67.4256979443 502.274419502 185 168 86
7.04879674634 -155.053798448 929.689091227 67 54 46
35.7775276126 -49.413505506 336.911865424 75 79 44
1354.68495912 -1012.92069421 6800.03100077 111 108 53
99.6283301287 -56.6535331152 489.958220137 110 109 44
-117.050635012 -33.2206638492 733.944679619 222 194 190
-7.54413251261 -32.7856084216 731.848582196 57 34 28
19.7199300284 12.66922701 -196.040975969 226 215 209
7.27834318008 -110.750625872 -867.225199381 103 102 108
354.045220611 44.8962257525 -1518.68061156 92 73 75
-3413.76144007 -2932.41035493 49489.7569398 232 208 198
310.137782824 42.8197050474 -1432.48154311 80 65 70
18.3195671016 -79.5037726112 -721.741198921 213 213 215
16.0086727718 20.5586982593 -376.350970303 86 58 55
57.3058998018 40.8317706319 -485.645364882 159 147 125
329.896927742 551.892084797 -6207.01938082 168 139 109
84.089167122 100.457471167 -628.231993707 193 177 117
-496.93011575 -247.493045932 2301.52256939 133 104 86
4.41694393971 -13.1003533277 127.348895389 195 168 147
-66.8218092283 -15.5538964866 424.292065178 78 66 70
167.682467061 -106.166294604 856.899431495 190 194 81
-480.132186451 -370.393562767 2110.0723582 127 120 112
1860.55971983 -1269.71126952 11979.1824021 80 72 36
1160.76757393 575.70589173 -5764.89645205 141 72 75
81.9233076645 -101.055783845 637.458210947 115 112 43
26.8723774572 -29.4790473189 446.999227874 191 166 161
-20.6922855992 -15.1284773216 290.985764112 100 75 71
-4300.61191956 3342.46109644 -31074.9297324 77 62 33
-30.5788124535 -43.4212380227 -447.705705455 175 192 220
-239.545220016 -222.28519158 1234.45997964 69 83 92
-0.00177568429265 -73.1885181389 -473.402570121 103 114 142
-21.6171741953 -22.7294583328 371.733969801 235 211 199
33.5840434332 22.1258687282 -478.820778231 68 55 64
-54.9325747918 -19.5621999895 -675.968769793 97 94 101
249.824162379 1013.77036271 -6895.25145409 182 155 102
102.934955479 322.739176748 -2679.97482225 88 81 39
-294.095519504 -103.022805812 1336.21749123 156 140 125
51.3546416612 -77.3940286822 482.262863035 115 109 59
-25.7817646976 9.21836603526 -673.451032762 53 58 88
92.5595472062 109.230596574 -645.357976816 164 158 110
-82.7591994727 -118.319938074 -949.334781972 108 130 171
117.435600746 20.1590018635 -591.212006725 81 62 66
-4.90139956937 177.1146407 -1191.20596795 71 51 42
68.168940944 -51.2938937156 379.172231752 97 93 55
-33.6451299542 51.79743276 -494.768452354 155 121 94
-62.7640920066 60.9823046065 948.541996018 189 203 232
14.4869151328 -96.9662986581 -580.399750024 166 188 212
184.665889942 84.6538103064 968.619468432 99 121 168
72.9897860167 -32.6423518722 389.309873347 146 113 78
-76.2708483145 -17.2536387597 418.337952753 232 195 189
0.480223922735 -27.3603642054 232.490701908 78 69 40
35.6247084567 -46.182758446 311.250568495 109 103 71
-25.3245894027 -114.647175756 976.152601347 85 77 38
-14.4370850306 -123.919767077 -1039.45494658 212 207 203
30.6135857188 -45.8351620002 311.421997189 92 101 58
-126.391632989 -58.7074807742 708.433614124 202 189 183
43.0164473465 -45.9406285872 289.751760636 144 144 58
2.18344705655 -8.18239008201 72.9584830722 80 66 39
33.0988406042 -66.8644101208 474.099114084 203 196 82
87.3068602975 -86.5712855002 664.492179299 138 125 55
7.33031246485 5.9658868628 683.015232857 40 35 42
81.760852009 -64.70650288 494.993624061 179 172 55
32.8372385368 22.0536819456 -797.046561873 77 71 71
35.5043277096 -36.9928813951 352.545200817 165 129 103
-5.35621297054 -7.48525470569 70.2381052862 78 73 33
54.567493236 68.7306616495 -459.635933318 226 206 137
37.3412388619 -42.5874182122 306.910038386 182 172 74
-44.8598803719 -15.5930276234 -539.82207597 97 94 101
36.0444841413 -78.8390862855 480.349346664 113 102 46
-71.8465402616 -109.937862586 884.762155996 121 105 46
666.380216738 -559.081518045 3987.28891323 138 134 87
3.32728621528 -15.099866079 206.046440454 238 215 207
236.22601316 -50.2620857524 1296.54363946 167 137 113
-14.7392683497 7.43733760184 -514.194542475 196 186 184
-86.2320397435 -39.2294215154 511.001474959 200 187 178
0.483003555007 -27.154553069 189.902417752 62 40 29
33.064665185 15.8368446748 -620.420048985 67 63 62
1.48000948856 -17.0780598964 258.076901754 100 67 60
-28.7053525945 47.6657106354 -278.167389314 255 249 223
23.6970191089 22.1287616837 -292.618196725 159 134 104
103.038963255 -67.9270048438 543.998572776 171 175 64
402.687686866 358.228702606 -2452.85018775 212 190 176
36.6979910018 -77.8578942078 506.889702846 74 86 50
-52.975524132 -44.5406629388 546.579577073 226 209 191
4.89461644758 -21.1538246881 171.609389596 103 95 56
-340.876671562 -174.258669228 1704.34663662 129 59 61
57.4823767787 -29.3550378422 429.545561795 195 164 136
-161.77119365 125.522144948 -836.958991426 117 113 65
-258.868404187 -31.958294978 1306.21441142 39 39 65
231.571248752 145.03786142 -2024.7996708 222 213 198
165.931145049 213.750438176 -1269.56597421 177 168 125
12.3467613166 -95.9960289499 -593.518466548 115 132 162
135.47711713 383.223677354 -2917.29428497 187 181 69
58.3718221922 28.7034941383 -588.474596681 88 72 75
-98.6635742343 -104.155630323 691.1086168 155 145 83
-52.2060396103 -5.14307264557 -645.046034007 68 62 62
222.902372329 -6.08257272861 1067.40243984 92 72 74
57.6172164488 -57.9693927277 408.784843131 72 68 23
-617.660285712 -143.569877455 3457.08968805 224 187 181
26.7516328585 20.5007208264 -289.469084633 200 183 165
12.9978621511 -15.9484855287 153.212944673 164 134 106
-47.9820379132 -36.9745106029 -595.181210362 123 133 160
255.681489965 509.478430827 -3354.29728971 191 171 144
215.998401587 -36.3077672038 1385.0058095 85 72 81
-35.0558124607 68.1626881616 -432.646896208 152 115 60
67.1117918711 -31.5094384354 295.522565398 88 88 24
10.473754663 29.2448545852 -521.59396421 126 103 85
116.155812509 -39.0270512898 -1861.22542731 101 119 165
-2184.01544365 -1208.86848359 9594.21208087 181 183 82
268.1114545 749.063630346 -4944.67912132 170 150 123
88.2959238322 -75.7508327062 482.636522716 150 153 62
-2.52906142977 -85.1026631963 -511.649015277 173 193 220
12.8597310674 -98.8968290672 598.283319505 126 127 87
-27.9587348635 -182.777280262 1068.49395389 192 188 176
36.8710357979 -51.1125092543 333.37323824 132 130 53
-173.972774222 403.260824934 -2494.4558605 130 78 18
-38.5992351756 -41.18918466 -565.408710872 182 194 218
17.335995094 -59.483145812 357.355395493 117 114 61
1555.45061092 1702.84709387 -11617.379253 156 141 74
63.3562852309 75.3207847313 -502.247803789 212 196 101
1640.47786347 878.868999316 -6864.54046264 233 211 47
24.0246200828 67.6500867639 -699.388204732 165 162 157
-1227.18254068 121.202755768 -5186.45340127 180 152 128
0.496740934365 5.58239989879 -41.6639934502 42 32 23
48.5503427097 -163.345013357 -1886.51607383 182 194 216
-45.0830774 -113.52025998 846.246188571 186 169 87
43.2533378711 -39.3956165765 232.018951179 237 221 195
3169.93097764 -1745.74571653 30218.2132801 121 86 67
-173.799919083 132.098196089 -869.911608707 114 115 49
-182.129488912 -50.0279926352 1183.28691424 95 77 73
9.03763671746 8.37287088145 -190.527573606 48 54 88
32.882699398 -51.0716269352 448.497053797 86 80 46
6.58721053386 -30.3002680762 226.734479986 124 111 56
-13.7858414136 27.6941027973 -804.533362309 89 79 77
-56.6154523373 -50.7991931371 524.390908139 174 154 127
-259.906774392 46.4256523459 -1436.1177626 186 143 127
188.550682635 -87.3251697612 1539.65636788 225 191 182
-8.68045421918 27.0196260354 -189.220548234 203 192 102
404.682957649 243.423586338 -2438.06716805 157 135 122
-18.8690513719 -178.987785971 -1344.62245178 64 73 90
1.74338357002 -11.8255405928 565.981844808 144 133 127
47.6315135284 -54.5979142617 309.986199121 244 228 202
10.003618412 -8.79087033216 -129.914588336 192 207 236
53.0222349977 48.4851023131 -354.247570417 141 133 114
45.7353965884 -67.9601174374 4597.02876739 128 111 101
-3.00549860473 -2.03522624625 34.1852948237 236 218 206
-364.363126743 -160.681212693 3403.95765889 102 81 86
-152.132002385 -94.610348266 994.418211402 205 193 181
24.8767623515 -17.7183912655 271.452630699 152 116 104
63.7392809572 -38.6372531117 416.852559692 156 125 94
70.3875044662 86.5705021939 -704.602958807 134 124 62
-44.4163955278 -86.9322458055 -523.775498836 176 197 224
84.9034738509 -40.8206746759 427.521266406 75 71 33
-6.118393974 -46.8166202919 279.535460358 62 49 40
866.130494345 786.941057306 -7420.6157975 166 145 114
14.0893934517 -31.9522852153 192.810091371 133 128 62
33.0121071795 -61.4443285965 400.179670956 100 90 54
-251.376646712 -94.9279283073 1104.289327 73 67 53
4.86117438687 8.25853029947 -80.6430944243 66 63 30
15.881536238 -49.1690361482 559.283052407 178 152 125
211.487462982 -217.07037311 1270.35467414 236 220 194
8.81581788603 14.0558542538 -92.3069571215 220 202 178
41.2002193299 -45.8486346611 313.753858521 107 106 75
-0.710851527309 -4.60046313459 51.1778371296 67 57 55
820.513968398 616.57150472 -4204.2690561 214 220 216
-453.48252388 -366.158487245 2040.13835434 224 216 197
1.71294431457 -13.7104991526 140.613636816 195 185 176
2.8468882448 -14.5648794126 123.479729184 87 83 38
239.416013925 -122.630400356 -1377.95190596 127 145 181
6.88102479595 14.4218250311 -180.742633767 212 190 167
20.9748894713 -52.2659766549 314.412238614 128 121 53
-65.8336644453 -34.0264887196 295.389766838 89 85 50
1.51177108981 7.34303535836 -581.678186725 54 49 45
143.691404224 -42.4372968282 694.120093773 136 110 75
-14.9198934808 -58.0311873572 414.910885848 160 132 82
-161.61076653 -110.548343465 695.046428252 207 207 133
-200.597083264 -185.928820733 1284.77895113 126 118 99
8.14703211982 -106.491740285 709.531184037 169 146 94
-47.4272955318 -20.891268224 -649.796088598 99 99 109
7.99465522956 -32.3965951473 233.70741727 204 187 79
970.892693285 833.113044757 -6368.74651612 159 147 121
311.148850477 218.426216683 -2993.89371037 181 167 154
700.785334187 -316.593454195 -2968.48855336 120 140 173
26.1705760704 -59.8563221909 352.452081572 176 180 83
0.532456106008 -11.1487226735 84.3272232574 108 87 40
-11.5984159988 -20.6414355163 170.635774758 102 96 46
54.0095897982 -99.4065643066 644.935670505 121 104 60
-115.90367266 174.163323585 -1127.00111074 103 97 49
-97.0406208845 -61.23815937 -539.498082659 92 112 145
142.72741646 -105.753251536 663.274730681 235 219 183
132.023902138 124.415242927 -1203.74608509 193 171 148
333.629907271 148.944206241 -1764.78502275 186 169 161
-748.358318136 946.843551639 -5703.43125758 238 226 186
8.61769745936 -9.05327223272 101.381798775 158 129 89
111.795455052 -78.4907393806 644.528030011 111 100 34
27792.5356491 15571.3818184 -208318.077189 221 212 203
27.7154412744 -28.3267589178 219.373522463 106 92 31
-16.7129683072 -101.727143049 563.74001822 118 114 89
-677.227581233 -519.161204395 3369.63437438 114 126 124
2.98312243789 -9.30713440539 257.474732819 86 77 70
-2274.38427207 -130.238796723 -20797.9316509 69 73 85
67.476267768 -30.9798931455 348.749893984 85 73 51
2202.92892233 -790.301722286 9326.01818066 57 49 30
102.20925436 76.7158100241 -601.592624175 185 157 145
-211.629984662 -196.770220508 1156.03293243 165 164 97
38.0689510955 -72.2228575153 498.258654447 164 166 82
436.118091094 -9.09744992514 1897.34049723 94 56 53
6.93948729965 -52.9252240645 320.427560247 121 117 79
21.5999551587 -55.8675240525 318.690761741 235 224 196
29.0963278626 40.7133417181 -429.056237517 143 113 87
22.1996544599 14.6247503796 -222.393049378 224 214 205
33.442504163 -34.8000621872 301.930902245 82 76 44
7.98700266933 -108.898426903 -852.101425742 102 101 107
-1293.02111184 -1032.24465792 6500.24889279 69 84 87
160.774817599 -92.3055466604 773.908015184 83 84 8
184.514778171 270.412146936 2494.10504665 124 138 173
-32.9398632433 -14.4066389264 -454.321185929 99 99 109
59.6400708457 -19.9005520796 522.818708287 53 85 136
1.3165208626 -54.1828940314 308.405906364 251 245 233
-8.54610527133 -24.4115835146 411.134687583 151 125 108
-40.4379589398 -78.5748105594 -476.633581142 172 193 220
135.937276755 -62.1539372408 1234.74860525 53 33 32
16.621684897 19.3905898468 -399.160270615 31 35 47
10.293483108 6.88143014731 -199.815538574 84 83 79
4.5359693118 8.30761403189 -81.9164325497 95 93 55
92.1355123356 -63.5316387213 481.502645015 90 85 45
-199.636762836 169.68160987 -1284.4811458 186 173 68
4.66655506232 12.2119390787 -151.049578346 64 48 35
-47.7120083586 -99.1988430372 -639.599028926 182 203 230
-5.04000168463 -94.469277388 915.92863859 66 51 32
113.885055985 49.5254361903 -1112.89650107 95 79 82
2.65327732272 -21.8223894386 208.73410955 145 136 121
5.9068080327 -14.8935777053 161.248307424 170 142 118
-10.8273625658 -15.6929223221 269.132098531 95 68 61
28.4340835989 2.15567087868 344.279504781 72 66 66
38.2823129478 -92.5591269735 554.248025874 134 134 64
213.346503857 -149.12982882 1285.002399 91 82 23
-36.0786386263 55.7843808282 -530.239232867 152 118 91
22.6548103889 80.9223789892 -507.164156849 200 179 126
236.222164138 -55.4490484791 1412.5655018 191 143 129
15.9755797232 22.251531898 -151.760001857 180 162 98
62.7314270585 -49.1109366182 328.218675766 114 110 63
-61.8169784779 -101.574317941 -612.50112299 109 136 181
258.24414519 -189.779397915 1928.52854091 170 140 106
9.12356960386 21.226637567 -349.699478323 99 71 60
118.783519762 -50.5514621012 540.144780874 110 105 67
39.8729379727 -47.8566243652 325.721430248 97 92 73
8.23870746085 -42.8943612152 -307.339657312 78 82 93
12.5398587001 -1.00930225574 -228.402835292 82 95 147
15.8085527442 7.27832657735 -286.724335186 79 70 75
52.4891029587 -2.39016211824 438.753006542 44 69 123
-8.2095008843 -43.3917491337 300.459767841 89 64 44
118.600172799 103.26077797 -693.782237533 160 85 92
264.454944923 -124.324406279 1417.15730698 138 105 72
-95.9618048622 48.1290938011 -482.209654346 79 76 31
3.18629090685 5.51288668816 -108.488546306 30 23 30
14.528777939 -51.4090185884 327.869920206 99 102 71
15.0057231505 -9.37527206463 156.66255428 106 66 58
-45.1442266984 -40.4289021348 1174.47211591 66 61 57
-10963.0173569 -2739.51955188 46505.3715437 154 136 114
-12496.5347932 -27571.8936733 153209.417703 102 97 65
-529.118313013 -137.788216763 3725.57482677 92 82 90
1.34929185475 33.8200613964 -537.096886406 60 42 38
7.74544286098 10.720965168 -149.650561977 231 209 185
-38.4724939567 -64.8485670157 -384.500989462 106 133 178
60.1395262126 -10.5332959522 658.461053665 46 63 117
93.6574421086 82.2297779126 -547.54363034 146 71 78
152.150591147 -121.517684333 962.149915915 123 109 38
23.1091810541 36.8876209521 -957.038993322 67 59 56
52.6086226163 -65.0167065647 467.10278254 169 166 71
-130.028282336 -71.4985461989 589.882307144 111 117 45
-24.4983160001 6.99891226645 -151.420238619 167 124 107
-11.8525750762 10.8534716784 -241.667072971 71 90 159
93.4368809016 106.091003035 -741.977030738 161 142 66
-13.4916736942 -12.6394380611 -272.662962407 108 119 141
145.611195677 -93.6927086366 760.558614928 164 171 57
-2.61281565028 33.711460518 -365.810587581 85 78 72
-4.45109294262 -51.0474749549 -1098.67937516 188 198 210
255.075036297 -1.74147538988 2221.69460684 44 70 119
34.6714195258 46.6902126107 -596.300375087 174 148 121
-4.50192636165 -23.6212741187 154.830127476 107 81 58
-156.01772917 46.7088087174 -1158.16506499 53 33 32
84.246324467 -27.037233717 556.446795263 179 136 119
176.06554947 105.345961094 -1411.07304081 184 175 158
118.565145713 24.3470317092 -670.734854118 114 70 67
17.0539658848 45.2259676766 -631.647731488 206 193 174
79.7725579057 115.965801574 -3095.72257233 60 55 52
-215.958616421 -81.7213288174 949.988215085 75 69 55
8.9813536161 -25.3088061499 158.009006544 210 149 69
-46.1546485069 6.34349503741 -878.776355662 50 58 95
251.279471444 -161.712684872 1090.68445213 92 97 31
166.086445879 -111.221806463 711.589202655 197 180 128
62.7759209492 51.4360813961 -414.346353233 210 199 181
275.468728282 226.182132129 -1629.41042557 149 140 131
6.94640998266 -18.7573694649 166.20305411 78 62 36
1062.60000728 355.765411938 -4584.11556748 143 126 108
43.0730469906 -51.653691062 344.700693391 138 131 59
-26.7070274776 -29.7198132019 194.131315418 213 198 97
-72.2578552502 -4.30328839128 -660.278495143 70 74 86
24116.3628234 -10904.8185187 107751.929214 53 50 7
81.8456815819 -44.0104674115 344.961012356 58 74 37
26.5401098919 40.7132933022 -313.164614902 214 203 85
3.06341069923 17.9552857593 -504.599552906 50 31 24
-41.7270763839 -53.9520554589 658.613295783 167 140 113
-90.6592032866 -77.8822673817 706.941088338 179 160 128
72.2020970214 7.98251485854 992.604005653 67 56 54
153.458486593 -92.4489317605 792.056137499 115 120 36
37.4768412664 -55.4174896031 370.223485179 99 94 52
71.0394222602 30.0958623827 -449.75148329 221 208 199
-10.2854414226 -39.1007708168 248.720280547 199 177 136
90.487668085 -168.621931849 1194.19009349 208 205 92
36.7115422478 -34.5425301564 -596.663740735 120 136 170
-34.2237839125 -148.696936501 1241.66995701 98 91 49
-404.141478732 -292.619391922 1985.46583541 210 205 176
1711.34308254 -396.737091324 8624.17150332 189 162 132
-19.9643231939 -27.1087306955 338.241027279 165 139 112
0.310411070637 -6.0348828643 65.251165212 97 90 84
69.9114673773 -30.2135596917 368.154877606 165 134 103
-133.321564319 -68.8929574393 745.124960658 141 131 122
147.441001054 -61.7730862333 627.977439231 71 71 11
-123.929811998 -53.4295356512 805.853818878 226 216 207
131.923933958 137.711184892 -784.020924878 66 68 67
10.0392835237 -23.2757953896 243.64628795 180 153 126
-7157.70770632 -985.272173711 34436.0955672 86 65 70
86.3237140215 89.4408786684 -551.229600458 192 175 105
50.7963597532 46.1672153327 -294.339029682 130 74 75
8.76544553732 -6.08865955017 228.903576537 229 223 211
391.482303457 -24.4006389343 2255.16661298 68 91 167
434.224531183 -239.375764805 1912.64391163 121 139 87
5.79711932514 19.1276969757 -151.663220391 83 73 22
-893.809832464 106.932045689 -4489.52728775 187 143 134
158.429752783 24.0615935745 -762.759047123 92 72 74
7.26095634438 -17.5322585345 173.772448494 163 139 115
19.0235374404 -54.5952288679 328.346976783 121 112 55
741.291034103 -335.573149708 3792.02840497 70 59 37
-1198.71876524 534.560437263 -12311.8660387 56 74 138
2.9394945498 -25.1468216047 173.821212961 164 135 91
111.687820846 -72.2982008244 551.978534343 55 55 19
69.3811128258 54.5317902802 899.368611074 123 133 160
-356.842933083 -485.464464231 2817.22072467 106 101 82
44.3793435959 -88.073917404 572.802100485 102 100 52
103.294109182 125.278585435 -723.418353661 159 158 128
244.27670506 -204.930137684 1459.48888048 171 167 120
-2.92794239413 -44.2889428129 -542.900621161 184 193 208
1.93622679278 6.01629696081 -43.5713923223 156 129 86
6.03004996103 11.2126727823 -110.819910436 96 93 58
107.545735035 107.716449471 -878.655075871 108 98 71
877.408334788 1337.06292637 -7697.67890908 184 182 141
2.9774462336 9.9860636652 -87.5751191792 82 74 37
-36.0723813079 -9.62231197088 -714.095467236 57 46 54
3.33855254888 -4.59167717989 -171.271627796 60 48 50
51.3919948622 -45.0411571386 319.859926737 108 109 67
19.3607278187 -32.1914653594 230.322041296 201 196 78
2.7718177418 1.58906543374 -46.8192247935 60 63 104
26.3747371254 -30.9129857138 258.137661948 111 106 66
13.0963510341 -9.42647822403 -408.055008896 106 119 153
-158.296227932 -89.6806789358 -877.608984099 87 106 146
87.7070924282 -61.6518570289 471.380325621 159 156 85
55.1432445893 -19.4510109223 313.625468328 161 132 98
-25.597620139 -18.1623765646 216.109350449 160 147 128
57.9005567903 -23.9786256165 473.052610769 141 100 82
241.11437717 -20.3892745007 1195.84168756 109 68 62
-4.2679240393 -7.36404963917 259.558758825 83 69 58
99.4308287754 -79.908361003 566.509274178 126 122 75
-2916.54629537 241.329052614 -16549.1236132 58 72 119
13.6980585137 -41.5951279332 -431.900115996 178 193 216
89.798560351 82.6735794907 -531.963823776 241 107 132
118.060868329 166.228547938 -1322.75430667 142 126 64
52.2376417336 -51.6878118696 465.036347528 71 55 30
36.1049470584 14.2566696555 -199.606061378 209 195 184
8.9782903493 -39.0371637835 266.138125035 164 138 87
0.0274650653739 -0.881893709685 8.8590685325 168 155 146
17.2058772193 31.8734064313 -626.214678143 37 32 39
25.8638763825 9.57208498269 -146.395693918 144 132 116
77.4074650142 50.2425916037 -707.416868685 213 199 186
-61.254071248 -24.703837956 -309.517115608 96 118 165
9.84617379529 -18.7749014786 163.065827791 76 73 40
15.3251018105 -13.7996165665 180.30100892 223 201 164
-183.351655805 -121.78939567 -1261.98552427 116 138 179
210.23318849 -26.9229480548 1004.92257669 176 138 117
60.5206159014 42.7393734177 -612.495126198 217 203 190
-518.060799577 -306.7638686 2215.52378442 126 132 98
93.4653467205 -39.8263351657 460.313220783 74 64 37
219.193414305 158.244260623 -1504.54793806 216 202 189
-8.03333640334 -9.87003069566 70.8645451015 205 188 84
-3.72044069704 -8.05775593254 -422.512191593 102 105 122
-360.019313918 131.471759266 -1920.88481313 172 142 104
31.838804016 -179.049927792 1006.95944839 94 89 69
15.1860798118 17.3803007893 -196.707474864 183 159 131
-30.0401894473 15.7646609265 -326.258271248 46 58 110
16.943356229 -9.94262398932 312.38347784 45 57 115
23.3128898086 32.0457270634 -285.298509864 111 108 57
118.788598713 87.9372363262 -631.175043705 222 214 201
14.960531287 -0.217192890051 -212.253954526 44 63 121
-209.768468814 148.196674457 -2668.71646185 41 31 42
5.79682453018 -22.8900179697 -237.321761269 139 135 134
-309.122660683 7.22498036644 -1646.47634994 67 91 163
172.774798451 -72.0940017697 823.488050076 74 67 41
-14.9844420235 -78.252938037 -636.697288029 178 191 207
6.67080012251 13.3420102089 -103.99961309 171 164 58
0.655257988643 -8.85141287995 84.6715737703 130 116 103
-7421.57823554 -5207.00445562 32392.9170382 218 212 124
-93.3584192479 -36.5842446896 543.08347404 154 141 125
378.718442348 196.098572472 -1608.9537054 129 128 48
14.1500902224 -23.8578866077 215.131096729 124 103 76
709.332511292 52.1652324245 2978.56437598 66 89 159
12.6095851524 -68.0755693686 412.165293636 231 229 206
42.1039398594 44.226511401 -407.088204511 106 92 66
12.2686196465 -8.79773510697 129.69368654 190 155 136
-146.435381894 41.225861865 -947.571928669 199 146 132
953.180534749 -770.677097285 5603.52144955 94 96 56
35.7120336703 23.953518757 -295.916441073 175 162 146
149.027935112 -54.9778105525 1241.30923252 86 62 76
-74.807109547 -13.9171484128 -811.602787506 103 110 138
-367.591222488 217.244819078 -1740.43450125 174 173 106
293.876165222 835.427500959 -6046.13153846 157 129 90
74.2143588434 -38.5737849474 380.794764321 81 83 34
255.817124187 -101.665809673 1243.46957491 136 110 83
6.07475908931 -30.2047406902 -232.282572677 148 151 160
91.8973008995 6.28466903838 873.765262667 78 79 84
50.0421486894 -52.4366580967 299.878225222 232 216 190
273.612149029 14.7935978532 -3157.1296522 51 69 133
61.550200159 20.8947897422 -459.989055894 114 94 95
4.37594628774 0.246630145619 -304.762597375 64 58 58
-27.0462049385 -25.1969540144 201.323645243 151 139 113
110.354995878 4.06179084086 469.825114104 74 55 77
-55.5877792479 -24.0634104885 331.870781421 225 211 200
-78.7649018809 -13.5412567878 436.895953802 113 71 81
33.9068810775 27.7523611492 -250.350312552 213 192 163
-1.79575582035 2.28652961276 -59.038103578 30 35 67
117.078271555 -102.493212015 714.365469883 103 99 52
85.4069932759 -67.7872440235 446.538323527 105 106 36
9.83587754292 -15.2265623974 134.088989416 86 80 46
-248.678510698 -93.7957420416 1181.27224447 116 78 75
14.7948549731 -8.89057290778 141.387261653 194 155 138
96.1998588382 -116.417939121 4574.30540242 125 115 113
-7.00438492957 -13.3313647977 194.170711645 240 224 208
312.889755542 44.8649376925 2431.04984911 78 99 144
54.5628570129 -17.377670115 535.745471752 65 84 153
44.5825202993 -41.6501787284 320.217279679 113 101 19
171.418785689 68.5055924508 -3788.45307419 105 99 99
98.5648343649 -54.242186763 552.433581987 80 69 41
42.6122116692 85.205541261 -589.663432059 187 167 108
-171.715560674 -111.66791084 838.967887491 211 206 89
-112.128213822 -15.3454582968 -1254.16266108 56 54 59
4.74047986177 12.3873017698 -262.17034186 80 62 42
136.154089791 -146.273526071 827.336658043 228 212 186
9.21356498207 -28.9077331888 189.252473388 166 159 105
109.709563813 -70.384605753 572.740028343 164 171 57
6.65452375686 -13.079529057 120.753544242 145 115 91
16.7541337962 154.042109625 -5602.58479182 45 34 30
85.7536081852 22.957094726 -515.67587596 220 190 188
42.0685890841 -22.5314578944 329.755047747 201 170 142
23.1724517379 -22.0999926735 256.430763922 160 130 92
-2974.22735788 62.5375314248 -14476.1175511 52 42 67
-165.328546804 -90.6706449109 1026.26496305 193 185 172
28.2552526676 64.7970531819 -458.704265188 121 102 72
110.046017778 -53.163031424 471.495085636 93 94 24
108.171709265 -125.542215028 799.740328875 103 101 50
11.2572756292 10.8359657717 -95.1019395715 159 143 120
32.0845946785 27.128149231 -181.18461361 208 193 170
-986.693619148 -502.325409399 -5338.92152201 103 127 175
39.7824659025 -21.5721496997 304.475555215 190 157 126
97.369535113 -48.80404108 515.908945022 67 63 28
56.9196037902 11.2296997194 -243.259521718 187 171 155
-29.4731413231 53.6824092596 -824.584833213 106 79 70
-599.218001423 -369.568472329 2541.00155948 234 228 202
70.775100351 -58.693662515 394.575401345 99 97 49
-285.976499917 -189.090629841 -1817.64327572 117 139 180
136.916059665 -232.834810909 1326.52975506 250 234 200
15.6958313503 -38.0708535533 -704.927750861 203 190 184
880.521499904 8.16633555194 4012.48192722 52 49 80
65.6265856425 31.258050101 -400.884067125 211 201 192
-206.472067708 -166.9427871 1046.84792193 70 85 92
109.487067931 -66.8759988321 589.129577502 91 92 16
-72.0582818831 -21.8240381673 -1002.62715521 116 135 194
6.49346787552 22.2719683292 -174.140670485 108 103 39
-489.580416862 -621.734773219 3604.55258915 84 79 60
103.802541206 -112.932945471 928.981454665 68 61 32
-1.27499661128 -41.1583161383 -516.515995056 196 200 211
98.6561132303 78.8520876032 -647.445491335 203 192 174
-0.824932351019 -4.73391654158 180.947638402 47 33 30
-316.287674219 117.331469234 -2302.44819268 194 137 118
341.432824763 -18.3106373861 1767.18854197 76 62 85
-24.0919837937 -35.1934990844 -355.994280894 173 190 218
53.5253727813 -27.4642660079 252.251495063 67 60 14
85.1372330677 -56.0872643458 409.649669314 152 126 69
-64.7827473218 -13.2094932753 286.038170687 180 168 154
19.6926946004 7.79350649721 -314.103513131 225 222 217
19.7642403489 -28.927359505 317.681543513 166 137 107
55.3067642251 -56.0626652518 470.20588208 102 95 51
15.2402679897 -32.1704663448 235.312538811 96 82 37
-3091.23060823 3592.35023579 -44732.3805905 180 156 128
5.98401190372 10.888339097 -71.1269042215 219 200 170
195.653390719 -67.574282255 826.71583258 43 31 17
14.0485686727 26.1855711767 -300.438569573 169 142 113
99.2320329475 -71.000196547 606.927029396 96 87 28
18.5639891656 -28.9951635266 281.879471833 164 133 104
-131.093849996 580.35735033 -15715.3589432 89 80 73
-470.396169064 200.373955734 -2907.73609128 152 122 84
52.4282245754 81.9868436852 -2179.08399499 73 58 53
191.467577852 199.326414964 -1244.32025505 190 178 104
0.228610268552 4.0595245483 -39.1176717631 66 51 32
6.14374922818 -105.381398403 -826.379966815 103 102 108
466.000985381 861.823876376 -4924.92902764 183 176 122
-1.3772177106 -5.33308206053 50.596608167 95 85 75
172.709352099 31.8952179101 -1075.64496881 39 35 62
6.31374217467 19.0594894006 -171.943945296 91 84 56
-36.8089202802 32.0426419733 -314.053456375 161 131 103
34.7777666769 -17.8581929407 203.898802779 154 120 82
33.1144897978 -56.3724056789 355.229227355 113 103 54
2.99832407012 20.5925758502 530.751225377 103 111 130
-8.15126397981 -9.27037540854 65.7863602167 155 134 67
-82.140779941 -27.8097468237 530.725371152 234 224 214
53.1472618047 32.4124307597 -423.585808631 166 152 141
177.57734619 28.5024953526 -1016.74476493 48 43 66
-70.4484329526 -15.5066984449 481.016651248 43 41 62
13.7044316414 -36.2698733625 246.095720599 157 149 87
-27.0665473673 -14.1783506414 184.919760899 227 218 213
-7.40677159154 -0.62701289402 263.809087701 91 81 82
324.605373094 -268.268184982 2201.09217054 104 88 39
28.2418094077 -25.5752643502 288.812166392 164 132 93
66.0299691596 80.7108101728 -738.226081226 119 113 61
8.91773358023 -52.3209129475 -438.906629175 187 183 180
-24.4070708321 -34.9947011656 -280.780515144 108 130 171
135.141214393 77.9069668325 -891.985623842 180 170 161
91.0508703272 -80.7907676327 567.578440118 120 121 77
3.60150282106 -11.7839070695 99.1614280473 116 108 72
2.10234679188 8.78644330444 -359.151675551 46 41 37
85.6155051404 -54.5582262422 533.564039911 60 51 20
52.0000706704 115.836374065 -1142.95862542 225 222 207
-0.785308072277 -5.13705117071 80.342835247 42 28 28
268.775345675 -345.895546839 2851.53548401 52 51 20
229.847179413 65.2350060723 -1149.15981914 173 141 128
11.2921032375 -33.2387586609 265.605209498 72 67 29
28.6384750284 55.8602822402 -376.158183722 187 167 116
52.6991416282 42.3561895988 -437.332432869 181 170 150
-8.70341199717 43.5495019249 332.172270039 150 153 162
-13.1288755371 -13.8931383657 -190.018901048 182 194 218
-68.2673953926 45.5248827611 -392.059971862 114 106 41
34.8714681882 -27.5997824622 291.646058918 159 126 91
8.01943426498 -54.7374749049 339.67660387 108 94 65
43.6400653103 74.4270326622 -416.769197021 128 120 84
-42.405882545 -17.5854766945 432.641909446 49 42 60
-3.36683623086 -65.4454096254 -450.063617904 165 176 194
341.218452852 -33.9255401433 1754.33923166 84 47 41
30.0719931083 29.28733064 -218.833849076 103 95 74
322.942395158 98.4392292268 -1439.18099521 158 140 116
147.839245256 102.936931609 -798.444766087 187 178 161
42.4106607968 -49.2891399874 346.485273194 186 188 91
-1781.80920604 -1867.62173784 13964.6118848 115 107 61
-202.348662383 -104.956563569 1071.26815302 186 176 167
-6146.11422459 -3163.96386595 27801.5685298 81 74 45
-3388.96666436 -2290.0070915 14177.010336 169 154 131
49.7038036576 -96.0324062865 624.264043612 85 91 55
12.331309608 -21.1758027721 163.375028246 109 103 43
-134.082286577 266.615746858 -2730.07207633 184 157 130
-56.9488999976 -25.3592876198 252.966627942 75 68 50
136.425923496 -4.37909817486 598.371923186 102 63 58
85.5367417323 68.0340233095 -453.637832194 229 213 197
167.43238313 -35.8731731455 1388.15857641 61 87 148
7.70643515067 22.6867076164 -144.635761195 199 178 135
12.4127793402 81.6448860808 717.341557048 180 187 195
-179.294631277 -15.8628303306 807.191674735 35 31 56
87.0775207433 -62.1589590056 512.914575338 121 110 48
14.3488189235 85.1850529504 -1933.10547698 51 30 25
-1.15071856199 -50.2008115931 -742.888979839 120 108 112
-2.71387385317 5.69491486606 -54.4075010666 161 133 111
47.6384243015 -31.8367066175 311.92561735 71 62 31
12.6075098977 15.7605217277 -95.5300956087 186 177 118
16.8002112572 51.936802735 -303.122864109 182 173 130
8665.23588237 6576.80297586 -49436.5988761 240 234 222
25.1294054939 -23.2915929247 241.010409606 143 110 75
64.49575282 95.9337390076 -541.523081499 95 96 64
34.3036161585 -32.251827033 216.661714641 88 90 40
-3.9822991555 -28.436086271 238.610143269 184 166 142
11.5694332257 -12.2186675451 121.387071774 139 106 75
0.538012409467 2.80684168182 -139.096178208 42 37 33
-202.836161359 -141.178899382 -945.644051473 89 113 151
83.603158911 54.2387210618 526.845732395 115 137 178
-42.5196139987 87.1202154235 -850.799226224 175 151 127
66.3338532243 -70.2802187891 556.989176183 82 75 23
29360.0430485 24149.3207859 -159096.562669 199 190 159
96.8068186862 -9.3999894806 413.020190742 180 152 128
93.3663558613 -91.913992912 517.23466411 215 199 174
-204.409974998 -162.830770823 1259.65938041 205 192 175
-414.373225138 -147.532193075 1883.83149096 148 134 121
56.1259536406 18.2417025197 -302.827937691 176 157 140
384.658893441 -106.463596996 2750.45946266 119 81 70
12.7017348766 -16.8621121705 176.514012194 148 117 86
-109.729458432 8.61888962548 -612.742717381 52 57 86
124.961085934 66.3595279362 -785.660561066 212 202 193
22.0289024144 -87.9463115498 533.420052561 247 235 223
-34.388403215 -17.225032437 300.609102457 237 224 216
73.3673770967 -40.3770682046 614.814617004 183 151 130
19.4329648207 12.3191126455 -173.483383505 203 189 176
31.332383438 -44.7138491596 341.150785236 79 65 18
38.7851676316 -182.390703814 1071.75394266 86 102 117
143.070146028 248.851169768 1519.20593323 110 137 182
213.638229376 128.744782845 -1621.39242609 220 210 200
195.914385562 -57.4745911976 904.380156278 153 128 97
1082.5620465 110.833001042 -5049.1617726 44 40 57
-31.8682726542 8.53919064094 -207.655299329 204 148 135
3.66831466044 2.64858400625 -29.1838560263 226 218 199
99.0589190864 -67.9435182404 541.719520254 110 111 33
-46.6504057367 -9.71735347597 224.228300097 237 223 214
448.776205489 65.7454979292 3477.78335317 78 99 144
-12.3547692577 6.29182948307 -255.577351912 68 84 146
-60.6881904634 -52.9347110443 451.548300455 172 155 125
81.8422188758 -24.8840722074 442.55405135 186 158 121
-26108.8497912 -17470.7657182 133990.57537 188 183 127
-58.6231204312 -9.64837553708 -1222.1809455 98 97 102
-1.83028584355 2.09101873069 -56.1779446186 49 51 63
1.21724129644 -0.0679476898351 5.65907605143 90 51 52
-69.168995506 -95.0711716779 565.023716916 185 175 126
155.467333782 -36.3014264695 1231.54338672 67 91 155
44.2897453867 -12.0241643298 273.331638928 193 144 129
-4.65097117409 -12.41223781 119.592308971 90 84 72
-22.0615400274 4.78557552607 -134.930116996 147 107 95
11.7350587773 -17.743075539 184.323340428 178 147 116
227.739970592 79.2904816522 -1231.75989724 188 171 151
81.635292314 -87.6058832411 594.336804047 121 119 71
-306.838117786 -41.5019908827 1513.59740167 94 73 80
44.9846371215 75.6281206752 -558.294752476 183 164 96
39.1626897314 9.15463683131 -172.86567524 195 183 161
-20.5945030288 28.2939524697 -664.564962798 43 56 109
75.8095590146 74.5805960811 -462.791713802 111 114 83
106.71090889 -61.3662765059 587.948687695 92 86 38
19.5568535725 -99.5765663528 629.183473382 155 143 101
28.5154432055 -45.8337971005 366.804917981 95 83 41
-66.4210815 -74.7447254556 -863.288513603 122 137 176
127.950376759 279.112277732 -1655.30703706 186 170 121
1486.29175958 -887.059200603 6501.91875965 89 85 47
-43.4001928392 -27.6870457908 -323.502032275 121 140 182
-239.369710418 -98.0616892488 1089.32038997 93 84 67
14.6075949391 -31.5848668125 242.497200015 79 70 31
-52.3720600075 -6.55632180912 274.050318723 36 35 67
-179.525480935 -25.9603103827 -1754.52400936 90 91 95
-372.236456982 -211.365208998 1580.05629178 141 138 97
70.8416195671 58.5157964727 2403.88921955 99 99 109
-19.9946718163 28.0635872215 -286.400340596 145 114 83
-3.51060455413 -2.84324494007 -69.5920185508 102 112 137
-28.0453358273 39.3163771329 -515.540754142 253 245 234
155.015835431 -284.309667049 2240.33829111 82 74 38
0.119750587956 1.55899333908 -17.2126262745 61 53 51
76.4238219615 -56.8427534443 396.427193739 104 100 52
91.6590374816 43.0480124477 -489.399982842 178 164 161
87.8008321957 -8.21048659579 487.741229065 73 57 67
122.954670169 -59.514125424 588.138393829 91 84 40
46.3177145044 -29.4440959961 535.643914767 25 20 42
-937.670059591 316.780758149 -4282.66868511 152 127 96
-48.752970023 -36.5111211871 1893.22518631 134 124 122
57.5067696883 26.5200980953 -336.80300086 185 172 163
226.99618921 686.013070519 -19348.437735 46 23 17
1081.31674769 562.769549696 -6378.7972317 180 167 158
586.321081405 338.68387463 -4414.51812531 229 219 209
25.1211229397 -42.3107589996 421.348108977 134 105 75
86.6790582576 176.346136403 -1231.0827843 188 167 114
43.2119208317 53.3403421207 -491.388014323 121 118 67
71.2176607278 24.5978040264 -448.151108428 236 222 213
25.6085133299 -75.0263065637 419.240276689 96 94 95
43.6403269409 -31.3627839605 1150.80029147 229 225 214
31.0334263429 34.3998146957 -473.470274993 190 164 141
9.78261856272 19.2510091327 -133.73041194 186 168 106
288.265375202 104.785676008 -1506.24663674 158 136 113
122.857345632 98.6942075745 -750.470679228 225 203 189
36.6947355474 -12.8839218498 204.762412819 168 138 100
103.134116586 97.3607095161 -631.609304368 114 98 75
516.755709841 -391.569366873 2777.9647926 130 128 80
-64.9574451529 -29.6293118263 358.978392315 204 191 183
-125.451146006 21.1955298785 -574.113513549 158 129 97
-21.2365020955 -24.8875355495 214.806926744 131 126 70
-375.793385723 -175.821208868 1685.60978615 80 76 51
108.802783234 35.5648163233 -567.975138831 185 159 136
-25.1061819054 -33.8062612828 426.580224525 172 146 119
157.370944087 -84.2487253073 824.269598619 84 86 37
51.8073664322 27.3659187082 -249.040052246 105 108 81
2237.61549212 -1340.83303134 11216.2675488 121 125 38
441.4640014 -29.1811537191 1879.7280898 165 127 106
20.2692654643 -5.93965633656 197.827971838 68 87 153
102.06680799 -28.4609603686 598.409082084 178 151 124
