ply
format ascii 1.0
element vertex 877
property float x
property float y
property float z
property uchar red
property uchar green
property uchar blue
end_header
0.0906427491827 0.382858908115 5.57680548966 117 64 72
0.00645123503744 -1.72591378836 6.1780360556 126 110 136
-1.01869875035 0.878145118265 6.30471899882 105 73 97
0.457089508222 -0.0507573331165 5.37025853261 89 46 55
1.22896738797 -0.861127297795 4.70386312083 97 70 85
0.500434608513 -1.80114084554 5.63578738396 99 76 92
0.325669381817 -1.28281292914 5.76847124619 131 107 120
-0.198225307416 -2.0405806053 6.46195020946 123 105 127
0.781784844959 0.8807951262 5.0208187792 82 61 76
1.34261969505 -0.0841974236521 4.49371608682 116 92 116
0.167978390273 0.336506667681 5.35983839295 82 55 72
0.976283789896 -1.6992283169 5.08666277237 110 92 114
0.643626497206 -0.293174638011 5.28232836695 120 95 114
1.60078076853 -1.28556856533 4.84542153356 93 73 84
-1.25364204985 -0.524979862234 7.06817840659 109 59 70
0.0762258011928 -0.829251789174 5.78908487735 105 59 69
-1.53684689692 -2.69457055071 8.00889874568 129 100 120
0.170289448851 -1.35316990904 5.95283042151 121 110 124
1.27064758578 -0.146068843899 4.56471982567 105 80 101
-1.62321849511 -0.668639392274 7.87825522914 109 90 109
0.695974092434 -0.534563731106 3.29315313532 128 96 117
-2.52738836633 1.20869367277 8.64685959577 122 114 137
-0.106922901768 -1.7426960937 6.34073302056 103 76 91
-1.35621383591 0.892192091389 6.66946949149 133 87 100
0.848172895053 -0.0686956776678 5.04929628039 113 85 100
1.23203062438 -0.318784914415 4.64952452842 122 99 119
0.66970268437 -1.66821885577 5.43905467969 128 106 127
-0.544850940358 -1.6143827857 6.25207048209 148 97 116
-1.21078010894 -0.126932990337 7.03977818652 106 60 70
1.29600432054 0.159811838129 4.51145644338 109 82 99
1.23639564465 -1.63459488908 4.79517579179 106 82 104
1.11041486552 0.616317634858 4.67361785102 119 91 106
1.19875436198 0.909522512111 4.54243801353 120 97 107
1.35282626378 -0.0713152489838 4.4878196935 88 70 94
1.09095736885 0.375403607759 4.71919485755 124 100 114
0.913989916795 0.372317550957 4.90436379113 123 95 110
0.707582096556 0.539796754506 5.1334302272 119 92 107
-0.648314180876 -2.09639183348 6.82574055557 204 199 170
-1.57020589831 0.622215527761 7.28571527607 101 51 60
0.28817133883 -1.86033828792 5.88702218704 127 108 128
0.978491940525 0.270808555107 4.86136207023 113 89 103
1.08103414234 0.56537358002 4.71161708894 104 78 91
-1.65934902832 -1.80245822293 8.03684526799 118 94 110
1.17054983239 0.26541198306 4.66384267994 79 66 86
1.25465120323 0.739915743541 4.49093259757 104 81 97
-0.748578810876 0.89030311205 5.99147719547 136 93 113
0.671525296496 1.0048244597 5.13999286261 94 77 96
1.27965201015 -0.523283268732 4.61339331675 110 77 98
1.58719424827 1.18559357097 4.5325391987 41 37 52
0.395434450341 -0.897867228425 5.66179441526 112 83 103
0.665451640608 0.946112202678 5.13681959393 101 77 93
1.59759915156 0.932709781068 4.54645300423 60 48 68
0.590628284388 -1.48537553768 5.50458742749 100 77 95
-1.0491707416 -1.1301040452 6.64569474502 86 59 76
-0.0784134418944 0.121915293098 5.75079501157 136 86 98
0.721674049863 -0.833311480853 5.28545542687 129 105 118
1.45998829547 -1.08072322595 4.69948516903 73 50 58
-0.810225120221 -0.249187360894 6.49787647598 84 58 43
-0.800768001225 -2.21051063151 7.10242058761 99 81 95
-0.34194936351 -2.34531201782 6.63838317453 142 116 141
0.684903422343 0.709938856671 5.13256844103 107 81 94
0.744295842849 0.880477949165 5.05297918525 110 92 116
0.380263946284 -0.765315086068 5.63336044104 124 99 121
-0.88352062083 0.541811863867 6.45919216442 82 55 70
1.5026616945 1.11682441051 4.47603238383 81 65 92
0.574132169024 -1.83335638161 5.55109789065 134 107 122
-0.615551238885 -2.28942825744 6.79886885744 111 94 84
1.41929371753 -1.10004278036 4.64448429569 126 106 118
1.03339509127 -1.73061034861 5.02923031999 127 105 126
0.525174614487 0.507493081491 5.35769733826 100 73 92
-2.37607362367 0.531308791395 8.59296174432 105 86 106
0.523966776745 -1.37387993376 5.54868124617 103 85 107
1.24880999662 0.564056888229 4.52150498002 108 80 92
-0.143998596385 0.623661226865 5.3491336496 114 78 90
0.52597333798 -0.0829037197214 5.40685425286 98 63 83
-0.151256273476 -0.230882418087 5.82281154546 54 25 30
0.754386514981 0.240919645792 5.12514253099 131 117 134
1.27093724932 0.0599176976297 4.55558853719 116 91 113
0.195462084755 1.21715361439 4.84339244543 121 73 85
0.379332693051 -1.79759099386 5.76838437107 133 112 127
-1.31909083944 -0.643195421093 7.09987347153 50 31 37
0.677859356587 -0.969610030666 5.31510995456 114 95 117
0.99359882376 -1.29428661097 5.025097542 123 99 121
1.2218047305 0.552162211596 4.54908966671 126 100 109
0.872980574259 0.609432442338 4.92699897815 117 93 106
1.07379502558 1.10611216635 4.63493936196 130 108 121
1.89938606398 -0.711539338283 4.79722008152 148 172 210
0.992901773347 -1.39851367028 5.0287453614 118 101 120
-0.121011705665 -0.0493637734013 5.85390292744 89 43 46
-1.40782690131 -0.0515902426912 7.22379251286 87 44 51
0.0967736888766 -1.56485817572 6.06688478547 119 86 103
0.806688563726 -1.37878309016 5.26963104306 120 88 109
-1.62390627687 -0.336200840312 7.84217723733 120 97 115
0.764744289037 0.219698822185 5.12486433029 109 91 115
1.16070201926 -0.25114638159 4.71895871387 102 89 109
0.515546369713 -0.178441368716 5.42566207388 111 85 112
0.670181363489 -1.23809632657 5.38246944962 120 103 122
1.0747160307 -1.58038334393 4.96523060331 122 102 114
1.64932640567 -0.180766491663 4.73932919525 62 48 61
0.223561640697 -1.47649840225 5.89969991357 129 107 128
1.24944065775 0.879764412099 4.47952605671 129 106 116
-0.851751603571 -2.28550073343 7.19187252839 103 75 97
1.13354350287 -0.664454068515 4.78886275582 124 106 128
0.702474294681 0.659630802838 5.11761454367 113 98 117
1.44944670401 -1.53891967956 4.73244299482 84 59 78
-0.203528337718 -1.59565127401 6.39833760952 132 108 124
-2.56116614986 1.14690416877 8.76884121359 122 104 126
1.35980178359 -1.06363617429 4.61170523451 85 59 88
-0.692055202094 0.265736255035 6.21066791841 136 120 97
0.163183579452 -0.525833556845 5.87822229954 115 100 121
0.931871654398 0.00376231428018 4.94599470018 94 74 86
0.792902435111 -1.56522252273 5.26168135856 110 91 110
1.89059527121 0.282475240429 4.71612341974 137 159 200
-2.54241130911 0.704009355963 8.73318249597 86 82 107
1.17773920269 0.29501920047 4.61698124222 128 100 112
0.693281770593 0.385562081202 5.16600091496 129 105 118
0.816535998999 0.364663468753 5.01902582048 110 79 94
-1.15074498044 0.353072405429 6.97072415293 38 17 22
-0.0362437364312 0.674346851988 5.21735735649 101 70 85
1.26560333001 -0.587704967822 4.63372483724 119 91 106
0.912877211883 -0.896487753097 5.06232351677 123 100 120
-0.853738588418 -2.08939033578 7.17383583112 94 79 100
0.517786335809 -0.782803075174 5.50500324741 111 88 104
-0.137936582998 -0.435213674876 5.87211136185 55 24 22
1.4920799612 -0.322749758979 4.64231623881 83 63 75
1.17563935543 -1.35581256187 4.82411088652 125 100 121
0.982261433368 -0.672672978053 4.96546240274 127 104 124
-4.59666350002 -3.2452819189 10.0632838061 127 153 210
1.35080918068 -0.46716658531 4.52566135495 106 90 119
1.14126386909 1.12421733911 4.56577476148 107 84 92
0.13126734646 -1.5167980818 6.01036057187 136 115 134
0.703659998917 -1.52588624673 5.36341007071 117 89 111
0.752023625872 -1.66525830707 5.3280658646 109 92 111
0.294027263799 -1.10816660704 5.7790163878 93 69 85
1.23486204677 -0.0327373799755 4.60129866621 119 98 115
-0.906636301518 -1.75067371821 6.55550478028 148 91 106
0.195118221322 -1.63130790561 5.94047708171 143 113 125
0.674854977826 0.741020229252 5.13484166904 141 124 142
0.701089800819 -1.63238066918 5.39778191708 130 105 124
1.40231656988 -1.40233200061 4.6655504849 109 78 96
0.726434408806 0.590134044349 5.11838034699 113 108 131
0.300027329738 -1.15742242752 5.78726212325 121 104 123
-0.375790015156 -2.29291681918 6.63853093816 130 109 140
-0.0316758204143 -2.23682261509 6.28745787216 105 90 109
-0.367170534235 -1.56263491445 6.08577656332 117 66 75
1.22294660328 -0.920899456725 4.73043821217 120 95 114
-1.90255426733 -2.331246508 8.38242988338 88 70 92
0.070652944403 -1.07395845722 6.03609238756 100 68 83
1.88970437762 1.28221900521 4.51213621795 76 75 83
0.788872857927 -0.370278757485 5.13868984666 97 74 92
1.46328420294 -0.490737612659 4.64084640032 95 73 86
-0.556384891985 0.239216849084 6.1394730201 128 75 83
0.774707514954 -1.19588660114 5.26501100207 76 62 77
-0.836181293132 -2.41331230395 7.19276612411 119 95 109
1.18747534019 -0.525450487447 4.72780170367 109 77 98
0.627234650391 -1.08802630992 5.40334934134 125 101 123
-0.372633062695 -2.0554740668 6.63308694766 126 103 123
-0.447929571554 -0.135089406195 6.0408654606 118 69 75
1.3845829729 0.56417546837 4.40880879807 133 113 138
-1.13034348318 -1.06787816249 6.75879020875 117 71 82
0.111844545558 0.603641217078 5.07012512928 129 82 98
1.33703130241 -0.140428210837 4.50427647867 127 102 123
1.44574971785 -0.179262389895 4.52723534697 103 80 100
-0.776560731628 -0.296173403639 6.38912400651 57 26 31
0.706959555582 -0.127174597953 5.22786971459 111 84 103
1.38572899115 -0.906496696652 4.59928402209 111 86 105
0.978756757366 -1.25013227278 5.03207132678 92 69 85
0.643418519792 0.483232562482 5.22486995789 85 61 77
0.343013520789 -0.479796258756 5.65767380749 100 73 88
0.139052918133 0.465355538501 5.34067877918 143 94 113
-0.925915776553 -2.29953194999 7.28911541655 97 74 94
0.0752190918482 -1.97697128248 6.12078735499 129 112 131
1.42133346253 -0.50869118907 4.58971476116 50 33 39
1.25302327232 -1.08974362528 4.70634689734 122 104 126
-2.35750170589 -1.72503032435 8.81528936488 126 109 128
0.605195597944 -0.69124077468 5.39486176407 122 97 118
-0.0167151886754 -0.863457549015 5.68136311296 71 30 36
-1.41521220991 -0.781753826428 7.12087272639 119 69 78
2.05173390384 1.36860032115 4.60866122469 104 102 123
1.29932642553 -0.22633031207 4.55173723646 99 76 94
0.976010107655 -1.12372060764 5.023594113 106 85 100
-0.458930592602 -0.177649017369 6.02733797908 105 76 94
0.0716887107463 0.0753187209432 5.59859681497 70 30 38
0.46401677446 -1.02461690292 5.58367048777 123 95 109
1.31611760027 0.586005894797 4.43717030516 116 94 106
-1.76856477581 0.111906234409 7.30004731291 67 27 35
0.704968891661 -1.51874993113 5.34786710189 121 93 115
1.12034980785 -1.1337011231 4.85931030532 111 88 104
0.295750085553 -0.411670350222 5.69642617423 142 111 127
-2.32449989169 -2.98317708957 8.93066018812 112 83 101
0.726368277482 1.1475325361 5.04221453847 75 58 68
-1.75733792325 -1.25216663696 8.09125219965 114 90 112
-1.84557313921 -2.85892393686 8.38234147554 134 97 115
-4.31606699981 -3.20683300474 10.0027998038 140 165 221
1.44636788506 0.429349664592 4.51127093033 113 98 119
1.26831155537 -1.40725957376 4.72313695085 97 72 91
-0.768686379932 0.344162739734 6.12220897768 130 124 128
-1.76354651903 1.03716778975 7.09466620471 79 54 60
1.38346251325 -0.437129903223 4.5418932235 134 110 134
0.69232582671 -1.23466854024 5.35706622809 116 98 120
1.39010657275 -0.590768175487 4.55845928902 107 79 101
-1.22748370201 -2.62297687659 7.64663081666 127 106 125
-0.620616868753 -0.507714451952 6.27422439386 54 22 33
0.219498030133 -1.79306037733 5.93280074355 107 76 94
-1.6103965372 -2.69024736783 8.07913172587 128 109 128
-0.449130559466 -2.30825788834 6.66442924089 97 81 84
-0.468742880824 1.1933213615 5.07525675751 136 94 114
-0.163503968456 -1.97309331699 6.38683493861 105 85 110
-1.71056345433 -0.445695317056 7.93855230821 117 99 115
0.747197780135 -1.45961497586 5.32128727369 116 91 110
-0.0945382741719 -0.389976243722 5.83464107887 62 26 30
1.17195207493 -0.543002927964 4.72484396306 98 73 92
1.28524261767 -0.52665163851 4.60313203078 127 98 116
1.08957053061 -0.378626189313 4.80675628507 122 101 120
-1.30830578136 -2.13426548854 7.60499945984 123 109 134
0.137880691962 -1.61458088651 6.02562561972 113 96 115
-1.09618412213 -0.759762384249 6.68620976173 113 65 81
0.881080066665 0.406390729906 4.95138950276 126 102 116
1.17136452937 -0.822289809955 4.77920700847 114 100 123
0.598426617563 -0.341190113567 5.35754448383 133 111 132
0.828675956257 -1.78319959104 5.25540784454 119 106 132
1.37867643851 -1.20358946591 4.62522633923 105 83 106
-3.76319069301 -2.08105332609 9.92963003117 133 116 134
1.05233660268 -1.21466511858 4.93928210935 112 94 118
-0.249871905473 -0.512379416985 5.98439987463 117 70 86
0.631614068685 -0.142714543051 5.2970229353 106 79 94
1.35569197414 0.105206990057 4.46869329694 95 75 100
0.468053946082 -1.376537659 5.61032063108 126 109 128
-0.509114096472 -0.9523467455 5.99050051065 52 20 31
-2.48323826273 1.00003427232 8.60955024316 118 101 120
0.62398039337 0.456063766496 5.23792233467 81 62 82
0.624474740751 -1.07216653214 5.41850537087 108 80 95
-1.02469017412 0.270485026653 6.66483945937 63 32 38
0.751892857176 -1.87122458916 5.36727352077 90 71 93
-0.735554096808 0.278538379727 6.19687739109 128 109 103
-0.791993233964 -0.633624579293 6.50648480569 103 68 88
0.879290832573 -0.303091310588 5.03704829138 86 73 91
-2.16650558418 0.821412501061 8.29743850947 156 173 243
0.728471318221 -0.252958907569 5.22729245921 76 53 63
1.2692710361 0.23814168303 4.53457202082 111 86 105
0.946693179325 -1.24819524831 5.08778058239 81 59 82
0.645535405926 -1.47860237969 5.44435350798 111 80 98
-1.70158828236 -2.62551548286 8.17337034642 93 74 96
0.571848067168 -1.14124892762 5.47914915419 122 98 112
0.934917021105 -0.407893954553 4.98858860087 89 69 81
1.86834941493 -0.580962448308 4.78888638859 103 111 158
-1.302805452 -0.628480984765 7.09730911783 43 18 22
0.701488927957 -1.57335996166 5.3838013335 124 96 119
0.505786671571 -1.78506178899 5.63368532994 128 113 132
0.537492791814 1.00742567761 5.26296208325 97 89 113
-2.06578627466 -1.18756205105 8.41406770727 117 90 109
-2.16033248749 0.295237550798 8.40101867793 111 94 113
-0.00386425298511 -1.81182840132 6.18251853482 130 107 123
0.69203368764 -0.37128278536 5.2556990144 101 73 95
0.747127636152 0.272324961725 5.11480613508 115 94 113
0.558385015172 0.841615285075 5.24753227675 88 55 66
0.660549755919 -0.100551508136 5.26355095812 110 93 112
-1.00633353823 0.405890915173 6.62211404066 137 85 98
0.668756777566 0.540894913198 5.16896025107 111 87 100
0.146809019402 -1.39228711151 5.98674077827 116 87 109
-2.41095886884 -2.9640326882 9.01192849246 136 122 148
0.854140558412 -0.952436885145 5.14084001819 121 94 103
-1.22306974273 -2.695379558 7.66950728071 101 76 95
0.636008153715 0.971446573498 5.16991526363 112 89 109
-0.44717572525 -0.036662667316 6.03958058589 89 67 80
0.579522121831 1.1050830095 5.18782023134 57 36 53
-0.156556451323 -1.85329864492 6.3655116803 119 88 103
0.711212776653 1.22229504064 5.07006692782 90 83 114
1.32641295782 0.999198870229 4.36846795821 101 78 88
1.39090968309 0.711394366613 4.40844204947 131 112 132
1.38191927571 -1.62374726388 4.68581515346 137 112 131
0.826350172685 -1.09609509976 5.21365981255 119 97 110
-0.0271348970729 -1.62319590045 6.20367389328 100 76 90
0.930727049706 -1.40565357017 5.11123288274 101 77 99
-0.974119993739 -1.2112239752 6.53970645226 74 44 44
-2.28908112951 -1.72550143728 8.73204637399 118 107 123
1.95165241121 -0.209265573763 4.72779669714 116 128 178
-1.18771647353 0.19676681779 7.01376659761 86 40 51
0.478825145385 0.657270319466 5.29525426534 102 73 93
-0.143825064657 0.797746871154 5.33336530687 118 76 90
1.03781006957 0.693511398119 4.73484875712 99 73 84
0.404682666048 -1.59363596403 5.73052555358 128 105 123
1.27655782891 -0.410740515698 4.599420167 104 75 93
0.358072492791 -1.33663704909 5.72521530825 109 84 103
-2.41090738942 -1.06853705135 8.78316289389 129 105 119
0.614489366252 0.882664393674 5.22265980502 115 89 102
-0.260233861986 -1.72215547474 6.48633733411 137 112 133
0.775640545207 0.392753092566 5.06199937791 132 109 125
-2.2507326812 -2.98254254591 8.83229825641 106 72 88
1.09137118789 -1.50866581124 4.93407664212 122 97 116
-0.143182061726 0.168468312185 5.75178760439 107 54 70
0.0186819658228 -1.1411517714 6.09008937071 104 68 80
0.812358035582 0.0174801108486 5.08353417811 123 96 111
1.89782179683 0.303288840268 4.71918870456 136 156 193
1.07762426509 -1.18218602135 4.90821925545 125 102 120
-0.474347721849 -2.08813282918 6.6790986712 149 136 120
0.263223696149 -0.804188426228 5.78134596321 120 90 100
-0.940401504022 0.741693461662 6.22622510981 127 80 96
-0.329680008134 -2.27908714558 6.6287644848 108 88 115
0.467280871715 -0.111799907975 5.38603083967 127 83 100
-1.20360450087 0.814269395856 6.49154697883 104 72 93
0.646690457113 -0.334088807421 5.29852820465 116 97 116
-0.0759135603963 -1.69839042718 6.27634791731 131 107 131
-1.92066120652 -0.619723474346 8.17223149223 117 92 111
0.786151945726 0.866945102416 5.00663394249 126 107 126
-1.67507167054 -1.93871844936 8.08387674823 111 98 115
1.38332174103 -0.162623419525 4.5076053021 103 75 100
0.404930379095 -0.308242777483 5.5772857527 122 92 116
-1.7598981017 -1.35166464388 8.09531726536 123 105 119
-0.607493576416 -2.35801725851 6.808736466 88 45 52
0.92999340852 0.277296397772 4.91609659339 90 75 96
1.35616242333 -1.09131591535 4.61811137371 111 91 118
-1.17402092565 -0.857232957934 6.74079329967 114 63 80
-1.43683826008 -0.791306007346 7.05757615377 60 26 25
1.61287461686 -1.69670381742 4.91804201294 41 25 38
0.506245661492 -1.00644256613 5.53356040033 107 75 86
-4.49780041998 -2.83881631101 9.97953371023 137 163 220
1.37502989209 1.17380814961 4.2626531048 106 102 127
-0.495904940796 -2.24350514723 6.66356611487 165 153 127
-0.423902831426 -1.52359542641 6.13656833352 33 22 26
0.730050010158 -1.790887306 5.37828490185 122 107 136
-0.72328735958 -1.25785716246 6.20639925168 69 37 42
0.417237966944 -0.337545994948 5.57430744351 129 117 137
-2.08720938911 0.0435462836728 8.28726281731 117 100 119
-0.418681994854 -0.80591997539 6.03495862882 108 60 72
0.559422756188 0.964373827587 5.25161779328 91 69 82
0.762250226641 -1.88839672653 5.34242640228 131 111 136
0.44083604859 -1.1896981086 5.63812701924 119 100 120
-0.829500572695 -0.256485233826 6.49767807686 37 16 15
0.455813410122 -0.140852194964 5.39424074238 134 82 94
0.307701176717 -0.854075948207 5.74807147822 108 77 95
-1.33107212727 -2.76810710271 7.7872396866 102 84 110
-1.01008463554 0.149424111684 6.64650941889 123 72 81
-2.15867334041 -1.60363161249 8.52541759618 115 103 123
1.29277688367 -0.969723306484 4.63805319984 128 109 128
0.754584651088 -0.43763101454 5.20989974025 119 96 116
-1.81059391341 -2.36669879752 8.28568023815 118 101 119
1.25270369895 -1.33295565356 4.73673451551 127 100 119
1.11613529047 -1.68021136721 4.93146681772 107 91 104
-2.45442813515 1.0635398444 8.54981460555 94 84 108
0.629149106593 0.657462285609 5.15809866855 101 70 76
0.550294016165 0.086824521552 5.35897516448 104 78 87
1.58794801928 -1.35638991627 4.84064441984 78 52 65
-0.74048032679 -1.14858871459 6.34324947477 112 65 75
-0.633534296241 0.0181193060489 6.28928758193 119 98 81
0.523623984457 -1.45057920288 5.56351463322 109 79 89
0.456092432747 -0.816664171446 5.57436482754 129 107 130
0.783244777529 -1.38766491515 5.26607979219 80 68 82
1.11097834033 0.859754673618 4.63417323408 116 92 106
0.558468265967 1.17928193811 5.2415497466 59 35 49
0.56206200199 -1.31661138818 5.52459507992 101 83 105
1.90566188248 1.32530757601 4.51971123088 102 103 121
-2.47865149408 0.588049057118 8.66399582214 117 105 129
-0.985434946791 0.152750313386 6.5907919295 121 71 83
-0.165055354507 -2.23144074992 6.42502742436 127 99 121
0.465807794585 -1.00657867044 5.5885459798 104 73 88
1.0417552267 0.25675576327 4.78943665125 101 77 91
-0.505063317454 0.830294390005 5.70209696131 137 93 110
-1.32928193858 -1.32275538015 6.87479683715 129 76 84
0.957931261321 0.52262024223 4.84114814034 124 101 119
-3.04958446762 -2.84374415611 9.56889011683 56 76 103
2.02260527143 1.4399775403 4.57861647437 91 88 107
1.39567587945 -0.73481242053 4.56683771883 131 110 127
1.54085113394 0.865444356086 4.55574767684 115 96 115
1.12635963826 -1.73441678891 4.92367792335 102 78 100
1.28284360693 -0.976267548394 4.66004262795 104 80 96
0.919589725867 -1.40734727619 5.11797501417 121 97 119
1.55820265545 1.1900009166 4.51198709793 97 102 122
1.3816601158 0.845962469029 4.37573829879 133 118 137
0.66335336375 -1.86604122942 5.45884469507 137 119 141
-0.0131539330448 -1.56447078865 6.1871629665 121 92 112
1.18395214433 -1.72688701092 4.85850001063 112 94 120
0.892821471042 -0.649398493447 5.05450748265 106 79 94
-0.541267240805 -1.1815754739 6.12218471064 107 64 74
-1.30367608399 -2.42230119195 7.73113941506 131 106 125
1.20056332535 -0.550857338217 4.70572543754 101 70 88
0.525929507743 1.39343303995 5.11492474817 118 99 118
-1.15759409212 0.87554166158 6.45054746549 137 98 117
1.64582706068 -1.14718228963 4.85452861878 71 64 72
-1.10052569984 -2.46868071603 7.48982947462 110 84 111
1.08461256827 0.355150522253 4.73143997039 93 67 80
0.104158631508 -0.885089916879 5.81115196473 92 46 56
-0.942124606664 -2.3896730411 7.29319804678 95 71 84
1.14664389385 0.339267876284 4.64686850138 124 102 114
-0.874602232685 -0.634367629503 6.59422473909 117 74 91
-0.593562309709 -2.15272569766 6.77695172637 70 85 90
0.859337861194 -0.637593892988 5.10283991846 104 83 98
1.1395542668 0.647612489424 4.62276565286 115 91 107
-0.856058894912 -0.121235571477 6.47989067402 94 48 58
1.01990111344 0.47461099715 4.81130497674 111 89 102
0.956905178804 -1.04861884645 5.03051821003 102 81 96
1.00902344567 -1.38956977694 5.01723954577 103 80 106
0.340462283288 -1.62114234599 5.78969169507 128 104 118
-0.442145981264 -0.936746909507 6.04040945232 120 66 79
-0.126765763337 -0.248892179245 5.80685863264 104 57 67
2.37407031657 1.38381353488 4.81639137593 111 107 132
0.673736786797 -1.22421916957 5.37576143705 84 65 85
0.702372208335 -1.09726203053 5.33188429098 111 86 107
-0.195506886529 0.571090619224 5.93625945495 125 72 90
-0.610132425468 -1.69221864676 6.3563272462 90 41 47
-0.506039894563 -0.84664058895 6.02894570174 111 64 74
0.674107288137 -1.16855813103 5.36044039472 118 101 119
1.36550029583 -1.18346667749 4.61506745375 130 105 127
1.3310579539 -0.978290950118 4.6031226693 116 98 122
-1.58376355254 -2.86897364964 8.07405939876 124 100 124
0.434017546435 -0.275155892433 5.52060371898 133 105 128
-0.773005400268 -0.0297508225337 6.40131628834 130 106 82
0.562995893503 -1.84373191321 5.57213399461 140 119 134
-0.226622692453 0.80076296053 5.38850790044 142 89 107
-0.725180774847 0.901445504597 5.95716446037 91 61 69
1.37745303873 0.367632594468 4.44106932951 122 101 120
1.89103660272 -0.990398745684 4.81503205695 131 153 190
1.26171734124 -1.71078328521 4.76809861446 95 75 103
1.25031155906 -1.63248963559 4.76475046651 129 105 127
-0.785764045263 0.0368796050287 6.25530213365 172 161 141
0.862341542876 -1.18882042367 5.16353344353 81 66 85
0.788115972107 -1.42204357995 5.29218695322 114 103 120
1.38418896254 0.821329200432 4.3790853252 131 116 137
0.861472689291 -0.719916040016 5.10635964451 122 103 123
-0.120611737024 -1.63539379852 6.29671816105 147 120 139
1.07860694873 1.03927141188 4.66524485791 106 80 93
0.27172461462 -1.80468880071 5.89402966994 124 105 124
1.24768277807 -1.37453950623 4.7534794162 112 79 96
1.8022268795 -0.7148921803 4.77892498062 67 84 112
-0.627896818832 -0.782797368059 6.11674700752 104 59 66
-0.0267573151201 0.234725550385 5.7159131654 130 76 89
-1.17430415779 -0.268875034511 6.74273963661 97 64 75
-0.201942847585 -1.67775800575 6.39402328585 140 115 136
0.531850145255 0.0463985372583 5.38294580728 123 104 124
1.61739734033 -0.0387827547642 4.7454919578 94 77 96
-1.6470577298 -0.562236909075 7.90845060213 110 85 104
-1.94392714713 -1.28115204922 8.29822065754 126 99 114
-0.523619227989 0.20202416664 6.09343500317 130 78 90
1.09408534611 -0.596703125416 4.83380709354 100 74 83
1.19606146127 0.541125368641 4.58266498378 111 85 94
0.261237705048 -0.327488977762 5.7225630278 107 78 100
0.788378842395 -1.5802703389 5.27706450347 114 96 118
0.666241815728 1.15595585323 5.14919115911 99 76 94
2.19380215449 1.46191444793 4.68845664118 69 71 83
0.709719067135 0.983762506469 5.09318287204 63 49 72
1.17890791901 0.242820600475 4.62169402202 120 93 110
0.257254120696 -1.68273796265 5.90075719544 130 102 117
0.587947035246 -1.60290674334 5.52578407697 124 109 130
-0.782373770458 -0.28179935675 6.41171605565 140 127 111
-1.70171071042 1.00925166237 6.62763922113 134 90 113
-1.66272005059 0.731782334847 7.14199924284 129 75 88
0.362144151198 -0.138524304074 5.27042777384 136 80 93
0.76709752188 0.982261389354 5.03415108968 114 106 130
-0.557445818832 -2.11611505983 6.72011116344 55 98 114
-1.16757732911 -0.866675934563 6.72464988012 116 70 81
0.568620842007 -1.76061652859 5.53275157889 125 107 133
0.454758560085 0.411032438508 5.42456836063 102 74 88
-0.934298242477 -1.49078044581 6.4767272909 74 38 42
0.865061379478 -0.746417091862 5.0978399292 108 94 111
-2.37691540348 0.0979467203701 8.59431376228 102 88 111
-0.511453469919 0.602967478884 5.72891528886 140 83 102
-0.0833403340438 -0.378233143029 5.82599280573 76 48 60
0.31751466749 -1.64747006145 5.82106204187 136 113 131
-0.950546003851 -2.60247361088 7.32943945943 125 103 124
1.1030198239 -1.1742551999 4.88483734106 106 83 101
1.28230877367 -0.225987895466 4.57646282255 113 91 112
-0.284976688581 -1.77119311202 6.49901238102 130 102 125
0.747887005584 0.239388972197 5.09709785545 133 119 136
0.855166644918 -1.29409923306 5.17569151621 120 97 115
0.395541994464 -1.39403418112 5.72586708529 129 116 133
1.02829593131 -1.51684576096 5.01375169188 109 81 96
0.338263955645 0.0159675808637 5.28727170577 85 49 53
1.05829373338 0.249241165284 4.76914896467 124 106 120
0.850537281584 -1.85033244263 5.24533847053 107 83 97
1.08179716459 0.378728471574 4.71462369918 119 92 107
1.36005231052 1.0947701649 4.34166580323 116 92 106
-0.141325632502 -0.381874631002 5.91470594073 72 49 57
0.794215952813 0.599821969343 5.03323711384 36 75 178
-0.620141817264 0.74342323917 5.87618483153 90 72 84
0.8151464689 -1.49116338007 5.22410067013 123 102 121
-1.60199201549 -2.12834198338 7.99061013058 121 99 122
1.54185066141 -1.39873120913 4.79660596728 74 53 68
-0.792743346182 -2.16071081431 7.11862776573 127 103 116
-0.54099878921 0.217336038678 6.11374749581 76 34 46
0.958140802675 1.03719592451 4.80397580445 104 86 110
0.545525802742 -1.36855890841 5.54033673078 110 102 125
-1.4544842958 0.146576600475 7.20873835737 112 62 71
-1.91957273575 1.04620980547 7.27905101078 66 51 54
1.26712026425 0.705579928933 4.48716667758 108 84 98
0.633107425691 -0.640220949512 5.35327233202 117 98 118
1.20954403728 -0.96991418641 4.73676922449 132 109 129
0.0801852494538 0.687692746004 5.10095912929 135 94 112
0.352800673587 -0.455414936924 5.63883138436 110 83 102
0.21093003416 0.357074608445 5.27500157835 137 89 103
0.69528667124 0.638823445042 5.14263209353 128 98 106
1.14265731316 -0.0892916942069 4.7236211207 124 107 126
1.44183629001 0.36006577086 4.48804982127 119 97 110
0.916551898587 -1.18196399739 5.10498030342 112 102 126
0.301869089132 -1.53507025395 5.80618483465 128 111 130
1.93081531042 1.29496743529 4.53355032992 66 81 88
0.615924568819 -1.65999464937 5.51096749642 125 94 109
-1.98283445095 0.494578662774 8.18639759398 118 94 116
1.65422843083 -0.259103810917 4.81690515047 94 76 102
0.621075967296 -1.81436921399 5.50317207375 98 84 99
1.17753009523 -1.40913018368 4.82006076018 126 102 124
0.942032893596 0.248711056258 4.90677386697 111 92 112
1.34631920345 0.978080207991 4.36661695314 88 70 82
-0.648167662034 -2.47027616168 6.99702538612 136 108 123
-2.16092583265 -2.99362833451 8.76731321407 125 97 112
2.0004446031 1.30450397742 4.58076706767 118 125 141
0.0568926411261 -2.1700404207 6.17914501038 134 116 142
1.67678340422 0.54476734881 4.66471187957 71 53 77
0.93712093081 0.0285070233856 4.93541702573 121 98 118
0.649953914783 0.766240669524 5.17507457597 72 54 68
-4.56192888971 -2.60086134893 9.7018638974 123 152 210
0.201874957106 -0.557598303506 5.86030593559 97 66 84
0.33341953244 -0.4940161435 5.66434729562 142 121 136
3.07149362384 -1.76764209012 5.64649954991 57 81 105
0.709275468786 -1.55067550795 5.36615718128 131 106 127
1.23632961058 -1.3322441758 4.75460228752 127 100 117
0.728833708947 0.531337326319 5.11950610636 92 73 92
0.576162584266 0.63486859746 5.25669047884 122 92 102
2.07927277048 1.44004794396 4.62214074758 94 92 114
-1.03482265011 -0.920681417106 6.55958506175 114 71 81
0.689025459766 0.676547344134 5.15779395052 84 69 90
0.712552768358 -0.0814053276569 5.20245943867 96 69 88
1.20399702764 0.301483349548 4.59929746863 132 106 115
0.564606958864 -0.16681977207 5.37235332808 101 72 92
-0.0357750580636 0.66929507774 5.21990537539 93 69 82
-2.43192271634 1.24191036883 8.52435825341 120 107 133
0.447781233067 -1.64453621612 5.68411519102 106 79 94
0.322689098445 -0.871422597975 5.72503417162 129 106 124
-0.841495869723 0.138738196572 6.3404265137 72 36 38
0.981196037698 -1.23299403089 5.03428122171 105 92 112
0.139840596206 -1.1622148865 5.97505735119 117 84 101
0.734112322125 0.138231682354 5.12886313482 102 74 86
-0.00202782179558 -2.14652591747 6.23560079182 129 105 129
-1.22961853691 -0.436020187754 7.0648449064 71 32 37
0.378940131444 -0.072719251298 5.27910647712 83 41 51
1.50844831263 1.01029705408 4.47804528654 102 83 102
-0.467832718288 -2.03784330374 6.71496742875 58 41 47
0.352885486805 -0.908772379116 5.69947556552 127 103 119
0.0362770380919 0.224626517064 5.64447030319 94 65 85
-0.691553921352 -0.58239269153 6.3732205295 117 67 76
0.917510269837 -1.52663679875 5.13832616235 125 107 129
-1.42262349357 -2.70250121778 7.87727484218 121 100 119
1.1470541738 0.231412190082 4.68232204758 116 94 115
-0.440433601219 -2.16986717064 6.66431013607 39 29 30
0.738787468597 -0.847976117797 5.26575190922 123 103 115
0.626096038222 -1.50664627816 5.46303879652 106 78 100
1.79273620462 1.08208971891 4.66077728023 60 68 105
-1.68842510557 -2.13100423604 8.12526454309 122 98 122
0.786149733909 -1.16268354057 5.23968895208 112 89 105
0.192494450915 -0.61582963754 5.84964106016 120 95 117
1.0367347728 0.753145191391 4.73368057078 136 119 137
-0.728967851512 -1.4083698048 6.11230755642 64 35 40
0.712742260011 -1.4685505388 5.35356747089 131 110 127
-0.551210630492 -2.29928818242 6.74100783918 91 75 78
1.63194810744 0.607145149222 4.65123575528 34 25 30
1.11905699357 0.469927072974 4.67431235179 130 99 114
-0.46900353722 -0.891136347019 6.01726564218 69 38 44
1.20012392088 -0.217566515057 4.66324568369 92 69 87
-0.246323926656 -0.403684253195 6.01182058961 101 59 63
1.24669226541 0.0664587518398 4.58218480279 121 98 118
1.243742606 -1.55017321122 4.77849090095 128 103 122
1.63791128084 -1.05402475192 4.88502458875 74 56 68
-0.176034715691 0.150713215623 5.76025800682 98 47 56
0.30198069778 -2.09305969179 5.92382307128 131 103 125
1.38561984867 1.17961233212 4.25123143168 135 126 147
0.301881125691 -0.332313817418 5.68174937204 131 96 118
-0.0125318510002 -2.22740684861 6.25780817749 123 104 123
1.28374476555 -0.196999613923 4.55411696941 93 70 86
-0.0893104560188 -1.44383151461 6.09903228397 138 119 147
0.187239909305 -2.01904564456 6.01723489679 120 102 126
-0.988115391276 0.417064877742 6.60141159909 126 68 80
0.945574218437 -0.101027788601 4.94265988308 129 102 119
-1.27628604285 -1.23596219021 6.75787977483 47 26 31
-1.39166697646 0.430938898913 7.13526281092 119 66 84
-0.53492001809 0.183830885225 6.10188972858 126 73 89
1.09896790074 -1.51599370241 4.91208327946 104 79 98
0.57605590286 -1.37084432479 5.49881283994 133 109 123
0.579906766985 0.53844326879 5.27217421655 132 102 114
-0.178260369998 1.00752493924 5.30021346321 84 48 52
1.90364324793 1.34875329553 4.52311326115 79 70 91
1.65003267528 -0.94275269633 4.81433009138 77 82 104
-0.862439283823 -2.05059270108 7.18802651846 96 79 98
1.20833461757 -0.507066308369 4.6918950441 125 100 119
-0.490901629939 -2.13356009056 6.62125989773 88 114 171
1.80009499519 0.585571423734 4.72818800917 62 71 110
-0.0662130010979 -2.17098979139 6.3253302733 108 79 110
1.31532454226 -0.621707469131 4.58163247622 122 93 113
1.60310057515 -0.876472595622 4.78543950641 23 20 27
1.24740442262 0.721978538538 4.49613656654 123 106 122
1.0075106049 0.975091869452 4.73330929982 97 72 91
0.145109899132 -1.69608712604 6.00731143989 136 112 125
0.867792336408 -1.40557547125 5.17541349983 124 93 109
0.603497372788 -1.39648347475 5.49890897182 126 106 131
0.635968906788 0.372022090953 5.24826887532 99 80 100
1.56385487435 0.783860568107 4.59719229906 112 99 116
1.59260858004 -1.30700804131 4.84313027498 105 81 103
1.03526287788 -0.867639485846 4.94729647418 112 90 103
0.943232210528 -1.26718507425 5.08821506959 119 104 123
1.7623005046 1.2305836963 4.42472056 98 93 123
0.912383317928 1.03299456086 4.83492706881 108 94 111
1.41981162312 0.383430799528 4.46687261635 53 34 36
1.07905434445 -0.588489565176 4.85395034469 95 72 90
-1.32857869187 -1.23257285773 6.94412333988 93 56 63
-0.138806902233 0.776005098565 5.32068722366 110 74 88
1.50721702472 -1.36729131288 4.75706728312 116 89 108
2.90933604276 -1.79321466653 5.62382029637 147 164 207
-0.0960047521038 -1.53144675363 6.27656003226 121 101 129
0.616544141673 -1.50947029217 5.49764720934 86 67 87
-0.982283999438 -0.864808585431 6.63622401957 79 40 45
-0.220521812409 -0.356190799114 6.03094963687 89 65 81
1.06967141305 -0.793963262522 4.8933651686 124 101 119
-1.73195409191 0.968241515563 7.04629102366 103 67 79
-2.25199846882 0.84051131954 8.36412562572 121 107 132
0.463025998032 0.648695119078 5.29778865809 105 64 82
-0.134166089925 -0.256414360045 5.81468218859 118 67 76
0.026962229166 -0.915556953801 5.70548422844 140 92 106
-0.124664932856 0.13431072328 5.7460519856 123 66 81
-1.76600694926 -2.25443398766 8.19549502223 108 79 101
1.07098118046 -0.571234970032 4.85562054273 97 70 87
-1.48350636207 -2.77283079302 7.95423259822 111 92 112
1.06142049388 0.212300152042 4.79168368332 106 88 104
0.219142346359 0.3543552371 5.27009396346 127 73 89
0.818238126099 0.341458016876 5.02129696486 121 92 97
0.719842838139 -1.45093038836 5.35525287318 95 68 85
0.81605539307 -1.54467341491 5.26796054195 110 101 122
0.983014411135 0.00585094645572 4.88521562679 108 91 110
-0.353163537972 -1.81611429827 6.59550403819 141 114 133
1.35134073279 -0.131814102056 4.45312294669 124 100 126
1.66765098608 1.41494513015 4.29196408571 38 51 59
-0.173990588211 -0.963214436766 5.711959921 105 48 55
-1.05703751231 -2.07091766368 7.38975739085 116 98 120
-1.66008839864 -2.87834124872 8.17687715355 121 98 118
1.65239927793 -0.206632754353 4.75940075872 100 86 112
0.739700662384 -0.463487592717 5.22285997707 115 90 111
-0.53526292564 0.106251928992 6.12548352413 100 66 82
0.884443067046 -0.374574712273 5.041317398 91 73 85
-2.07098804732 -1.7270570094 8.4996657887 75 61 74
-1.32422624427 -2.03021552921 7.66907033608 117 98 120
-1.04619729507 -0.0157148868021 6.7377291936 114 69 76
-0.814949477102 -2.24478018198 7.14192831823 102 77 96
1.54454315639 0.615294471796 4.57533509267 95 80 99
-1.79115702854 -2.55537611257 8.27103218783 104 81 99
0.621095963273 0.083304674663 5.30089081976 109 86 106
1.3879079844 0.386576103731 4.44837433597 96 73 89
-1.53736171932 -1.69947545553 7.9271647248 104 83 98
0.489345741076 0.626132579598 5.3118264771 110 63 71
0.0526028279772 -1.32078243385 6.09925345681 121 100 117
1.47570232318 -1.54727977126 4.75170457494 117 100 116
-0.0290679846613 -2.13301879054 6.26426975293 119 93 120
1.81362841905 0.138776527347 4.66853847821 59 61 102
0.604162324079 0.590384974183 5.23385988593 108 83 105
-2.36192763968 0.0893971419119 8.57858272462 110 97 125
-2.2937439605 -0.403195394202 8.56085993125 96 78 100
-1.10217830358 -2.1793506306 7.48452376601 115 96 116
-1.08088421224 -2.59817327555 7.49172950561 106 84 107
1.18703495593 -0.341083837399 4.69650698755 120 97 117
-0.489336011524 -2.07946304518 6.60467551283 33 16 24
0.884497498315 -1.16255283479 5.12868422697 118 94 116
1.08718752838 0.256843552851 4.73544535252 130 106 120
0.284986629216 -0.780474429761 5.76003312288 133 112 127
1.02613348443 0.845208933955 4.74305696618 101 73 85
-1.95527107238 1.06118867717 7.27208807168 106 89 108
-0.607214705805 0.375920929365 6.10505980554 90 64 67
-1.01801847537 -0.0148765223451 6.65241058724 115 67 81
0.441012895888 -0.159828133924 5.3722525879 141 83 97
1.55787649996 0.914782096374 4.5692505985 108 91 107
0.743439182813 0.598479888752 5.08785580492 124 101 111
1.3312446478 1.06078460393 4.35012656231 77 65 77
0.809111782637 -1.57242545828 5.2401881973 92 79 99
-1.37276413591 0.0898082822341 7.21007407105 97 54 61
0.532689765368 1.22121642176 5.24897001832 101 80 99
0.0783323071487 -1.31288934621 6.03435272489 131 106 127
0.380485628551 -1.02898794007 5.68436420954 107 85 106
1.1235908634 1.04826683133 4.5984173525 118 97 114
-0.854350907161 -1.75811874941 6.58895116158 130 73 90
0.938791970967 0.851930096445 4.83031542852 114 84 94
-0.411553683642 -1.35890420061 6.01929349999 90 49 55
-2.47029633186 0.846284901171 8.62141107247 105 97 120
0.543524098475 0.628210715233 5.29849667283 94 66 78
2.16917067389 1.38790779928 4.68220969626 106 103 124
-1.76361415362 0.886760152076 7.11577660074 106 74 77
-0.524100601178 -0.0181682010365 6.1270018426 108 74 98
0.397321006525 -0.862598081727 5.64314399984 122 103 123
-0.522985405229 -2.19662552536 6.68573608437 95 120 187
-1.34965291058 -0.180836776441 7.2258707096 90 51 56
0.893491181615 0.525697521335 4.92606771488 125 95 107
-2.16947207893 -2.85206207435 8.75860980648 112 94 116
1.37720179652 0.400674528606 4.43309325744 115 94 113
1.27652846732 0.22703242375 4.52593379092 138 115 131
-1.92231695011 -2.87702578549 8.45019614453 93 81 103
-1.44445625731 0.0312772822703 7.22950242628 113 61 73
1.48059447539 -1.06641362261 4.72084185164 114 99 120
0.785521160832 -0.55592822264 5.18354324641 91 66 85
-0.536562659131 0.387405522134 6.09328035197 73 32 40
1.10906478701 -0.492873173216 4.80806366306 102 74 88
-3.36421309355 1.87248956782 8.74578710396 32 53 44
-2.55426426642 0.758267044476 8.74392605316 118 106 128
0.201927875779 -0.947515693258 5.87268256897 113 94 113
0.775134478235 -0.126149775959 5.14593145104 134 114 126
-0.321943557869 -1.19402623371 5.99692858102 71 39 50
1.45058599846 0.242614916422 4.54918695147 119 93 106
-0.433125990299 -0.831582256782 6.07702367388 73 32 38
1.29948031696 -0.315886898985 4.56942295521 107 78 98
0.15461580914 -1.67696525334 5.98056673406 129 102 117
1.43044067365 -0.107741757212 4.54868735022 98 80 94
1.43455731175 -0.565067503874 4.56837134958 130 108 129
0.129839679693 -0.942226761915 5.83982412137 104 65 83
0.614776916923 -1.17284735048 5.42860018972 102 78 94
-3.5366644301 1.71775899628 7.42838401545 74 94 82
-0.634070304449 0.321421576408 6.10950463881 193 183 174
0.326202231266 -0.986816090144 5.71122214564 131 101 111
-0.193544548347 -1.13865832541 6.05529379833 71 30 44
-1.12068201021 -0.24913982047 6.79295936101 43 27 27
-0.24843604085 -2.0818113965 6.50046637358 130 111 133
-0.791666210457 0.868893055348 6.02012912888 136 93 113
1.39936823584 0.347927033791 4.44983428907 95 71 85
0.306385852859 -1.33321614465 5.79571236772 110 81 99
1.3239911133 -1.63186114154 4.6886229365 117 89 114
-2.11408311587 0.864961099747 8.23073602441 91 91 127
-0.699803873437 0.205662797247 6.33085699361 165 145 121
0.661021424651 -0.779903555998 5.36677913827 109 88 105
1.64495922085 0.561844854302 4.64072487136 126 111 130
0.790514377301 -1.51198151136 5.28259891051 108 81 100
-0.540800362473 0.0519083896137 6.12637138253 63 32 38
-1.41329021332 -2.50517361824 7.86388657176 131 114 132
0.166909269894 -0.511696672199 5.84388283402 116 89 108
-0.266587813323 -1.18154357108 5.99527093732 104 61 70
-1.18962293681 -0.358407089382 7.04447063542 99 58 72
1.04014229454 -0.954775634459 4.94059358988 93 70 86
-0.720284767902 0.937351535492 8.01441709843 129 86 106
1.28694956894 -0.748282015898 4.62637029827 131 98 115
0.880056422883 -1.74161451498 5.20505781011 96 74 97
-0.162110528628 -0.428542733476 5.89705594278 110 74 86
0.946493869148 -1.31540793516 5.08337481756 112 102 127
-1.17491355768 -0.439809107198 7.05297105378 79 53 66
0.5481510625 0.724561773877 5.28744817697 97 74 94
1.12280611073 -1.53540567307 4.90192019564 102 73 93
-0.654665947325 -2.04549145733 6.8310166083 132 128 116
0.137242338717 -2.02015337409 6.06540921088 105 81 107
1.53421261791 -1.27901447519 4.79235498891 77 53 69
1.31770819352 0.760581988353 4.415438013 113 96 112
-2.05330760899 0.718669255831 8.19457632722 102 89 99
0.743771429159 -1.759503499 5.35420131792 124 110 135
0.990526256328 -1.50143278945 5.05633214798 118 93 112
1.91441608654 0.282749077797 4.6741259536 156 173 216
0.562087332319 -1.93705984575 5.57832563989 126 99 118
-1.62090657019 0.0305429797991 7.33452474037 119 65 78
0.150881486168 0.34411234366 5.35937233003 138 96 116
0.339902044647 -1.72440027998 5.81510173723 119 96 112
1.14705315379 -0.657562869356 4.78097821901 100 88 110
-2.27341406362 -2.03708270411 8.74646750894 98 83 104
1.16382200706 -1.38861952108 4.86352074854 114 105 126
0.936884699504 0.108593114053 4.94038392024 127 103 117
1.25974143557 1.22440617133 4.33764374043 117 108 125
-0.862954779537 0.262297931997 6.20841612964 197 190 180
-0.473222695569 -2.16472018189 6.63246290965 68 42 55
1.18701075068 -0.866144323473 4.75664649308 105 77 102
-0.0848860983608 -1.97955169572 6.30346605614 103 89 112
-0.291872750065 -0.410699395964 6.07936014689 111 60 69
-1.18569038514 -0.336569750154 7.04314572593 65 30 36
0.950258370063 0.258371653923 4.88949145922 107 83 99
-3.52868795453 1.86035225216 8.91621783034 22 57 25
-0.659086065386 -1.25465693575 6.19041794875 64 41 47
-0.40967306914 -2.13918636406 6.65842125635 102 84 110
-0.323745256378 -1.15538070167 5.96269775002 78 46 59
0.431050341782 -2.00354026327 5.7147744923 132 104 127
-1.88269613317 0.8991671124 7.24530374094 88 66 79
-2.55651156258 -2.83661010704 9.15613394476 127 107 135
0.338098832068 -0.994354832721 5.75332813571 132 102 114
0.639298874506 -0.729696118358 5.37930732655 127 122 144
0.962426393455 -1.27250494145 5.07285011494 91 74 92
1.3650360001 -0.345782569851 4.52970976001 120 96 118
0.520306138401 1.37539625496 5.09986289629 116 102 119
-2.43009261296 -3.07762622309 9.05596194336 131 106 128
-1.27819640032 -0.436329301162 7.08737858837 114 63 72
0.276765711877 0.591980806772 5.09221861953 77 55 58
0.131937580021 -1.5880947184 6.03122212003 121 109 129
-1.6545760077 0.879399444132 7.00678486106 103 62 76
-0.141681829543 -0.587310933627 5.6769740403 126 69 84
0.437786903564 -1.69492831947 5.68845510831 121 93 108
0.596031170122 -1.98820837476 5.55616461891 115 90 111
1.79904721411 0.82668863713 4.6389852325 85 92 121
-1.04657597336 -2.01027566552 7.39216760172 106 82 96
0.719105893098 0.506396707283 5.12769528314 108 97 113
1.35931569167 0.406800952596 4.42901169304 87 71 98
0.69013003662 0.509093006802 5.15218259402 98 75 95
-0.490633307396 -0.968451144065 5.98937008374 82 40 54
-0.398025946288 -1.57477967266 6.09074291146 140 85 108
1.47455111111 0.405511198598 4.53182867457 101 84 94
-1.4449614842 -2.79283842411 7.94256596242 110 88 109
-0.449945801933 0.715562178065 5.68586114172 93 66 81
-2.07093673927 -0.245808055238 8.31508791323 108 83 104
-1.83277386018 1.02074921786 7.17155548477 112 70 80
-1.47451616379 -2.55764439865 7.94251750551 126 98 121
-0.957486583534 0.0514391991128 6.6108753556 98 54 67
-0.580772981843 0.604209301518 5.99363953439 138 77 93
-0.867889185867 0.772250145932 6.1340280417 129 81 95
-0.515166969846 0.339486392208 6.17391035291 128 76 88
-2.2524150157 -0.26284599358 8.51192116674 114 97 116
0.552984089966 -0.0483559075799 5.38159150458 113 95 111
0.953453411057 0.787212654683 4.83582940299 102 81 96
1.42054188788 0.696748142205 4.42857032347 111 89 101
0.164111336561 -1.03698577065 5.92747928936 120 92 107
1.30482382013 0.589172314999 4.47338634132 113 87 100
-2.06325469727 -2.19709030041 8.50292606442 123 98 119
0.666828356197 0.0982584744841 5.23078940347 120 97 113
1.15761670344 -0.300648599857 4.71808072538 123 101 122
1.70255821936 -1.13003714517 4.75825050368 48 40 51
-0.76546231817 -0.516265713277 6.47615371916 47 19 18
-0.135838061251 0.114440093232 5.77040733737 132 76 87
0.781729615242 -0.573150629763 5.19174202566 97 78 97
-0.646250893522 -0.945283680215 6.13620796524 127 75 87
-1.17788008937 -0.205339458401 -3.51751441297 103 78 81
-0.543398399294 0.17082225739 6.12664007049 102 56 69
-2.5664809684 -3.2198430165 9.24559320388 145 118 137
1.90639410352 -1.29878592027 4.87950742685 111 125 174
0.190663035218 -0.89523614853 5.86059675309 122 80 94
-0.407730182864 -2.39743879857 6.70374104498 124 94 122
1.65504129604 0.580467956699 4.65122800503 72 63 84
1.47448113779 -1.09850278533 4.67463685461 105 80 101
-0.746733647428 0.518953840408 3.08272079285 114 70 83
-1.04825156604 1.30829535687 5.92261169618 175 130 153
-2.50662632489 -0.601109925628 7.65842431685 124 109 128
0.0888910287386 -1.72308564423 8.96750370834 69 37 38
-2.49915657088 1.03044960066 17.9230074113 78 62 73
-0.769747256553 -0.184987073969 1.72226841678 90 68 80
0.686403429167 -0.774827818585 5.65242162633 105 73 96
6.54997461485 -5.41712839599 37.2838282671 42 18 16
-0.639929372713 -0.250992477505 1.8852928372 125 104 121
-7.24278798124 -1.43622227472 -20.4403138854 67 34 41
-0.858574159126 0.8594595835 3.17952055575 108 83 102
-6.8346479513 -1.31408802269 -12.9056255053 134 113 132
-0.754521758445 -0.47074581593 4.45813174035 130 76 90
1.00796770042 0.0824108950465 7.56401928749 129 109 136
-0.339176423453 -0.21159802668 2.21193205309 95 68 75
0.560231787357 -0.253532230156 3.99502895411 105 74 92
0.808009977607 -0.679294874959 10.2372583525 127 74 84
0.0191958232484 -0.704894581258 2.96860171832 127 102 121
-0.441446411789 -1.5944053617 12.2290789754 60 33 42
0.18581101572 -0.507489731992 3.00300608251 128 106 129
4.23603771611 -5.81080595303 37.9746179715 81 48 59
-1.45383433152 0.00750357241729 -0.831750052904 163 179 230
0.131092403344 -0.506006268724 2.77435120632 31 36 58
-10.4826310744 0.00680873651237 -20.4762219005 125 98 117
-1.31642883439 -0.21329807548 -1.45636619388 39 58 100
-1.14449849422 -0.80592734999 -5.55809445368 97 91 119
-2.4895692072 0.511588657597 -2.26486230233 102 45 54
-8.74486650527 1.91324996989 -13.342447688 72 48 70
-7.2811155855 0.358437537515 -13.3700835839 134 109 130
-1.30127296709 -0.198874992392 1.08555997686 103 84 106
-3.54046505742 0.574742004979 -3.58392562385 111 93 115
5.44878100595 2.34655392654 8.7809735977 153 178 218
-1.07764878415 -0.00244807601072 1.15818718156 172 186 235
-0.969247157092 -0.288665110243 2.01668706635 112 80 103
2.04940385128 0.303121874949 6.12670304611 109 82 101
-1.61559717054 -0.203311400681 -2.00255501054 85 63 75
-1.26772605035 -0.0627723540143 0.86275010321 113 66 84
-0.807856521185 -0.308291644052 1.79281643196 107 88 108
2.32144785115 -0.629530931513 6.21580665073 108 80 102
-1.4876354565 0.0645902986146 -0.472855630449 109 86 102
-1.94338658249 0.45585728077 -1.35703346761 55 31 45
-1.4633955638 -0.0938003713277 -1.21606322348 99 83 110
0.0209704392604 -0.621613430153 2.73799031044 32 33 38
-1.51483913268 0.0261369974714 -0.444863624735 105 95 119
-0.86021920525 -0.60585687515 3.52787645778 109 76 97
-0.152549361419 -0.918658106992 3.31555624856 123 137 182
-0.306778179349 -0.789415361135 2.86534546109 94 72 84
-0.602119111206 1.0917365189 5.04624249458 140 95 115
-2.46375964698 10.9077281081 22.6260091539 74 89 82
-0.131049617876 2.72354297022 10.0286398341 119 78 92
-1.44140662176 -1.05008606507 3.71009661853 51 68 60
1.02121134072 -0.948484069143 5.1022980418 125 107 123
0.963633608865 -0.311684679568 6.48076425707 136 114 135
-0.663919919567 1.22685225012 5.04671529372 110 77 86
-0.84845722368 -0.0876587122264 4.5012756915 111 57 80
-1.13236701669 0.391438787196 6.56168702348 104 87 103
0.518634272347 -0.938213402581 3.16943878195 119 88 103
-0.880504885108 -0.331004674976 3.36920376055 80 54 65
